# .PCD v0.7 - Point Cloud Data file format
VERSION 0.7
FIELDS x y z rgb
SIZE 4 4 4 4
TYPE F F F F
COUNT 1 1 1 1
WIDTH 1017
HEIGHT 1
VIEWPOINT 0 0 0 1 0 0 0
POINTS 1017
DATA ascii
0.29443449 -0.5250808 0.60999936 1.1063476e-38
0.30460271 -0.52504325 0.6099993 1.1063476e-38
0.31504664 -0.52483571 0.60999936 1.1063476e-38
0.3249163 -0.5250361 0.60999918 1.1063476e-38
0.33498076 -0.52500653 0.60988659 1.1063476e-38
0.34533909 -0.52505231 0.60999918 1.1063476e-38
0.35526127 -0.52514094 0.60999918 1.1063476e-38
0.36514679 -0.52483785 0.60999918 1.1063476e-38
0.37533426 -0.5249325 0.60999918 1.1063476e-38
0.38496748 -0.52516949 0.60999924 1.1063476e-38
0.39476609 -0.52509212 0.60985607 1.1063476e-38
0.40482116 -0.5249325 0.60999924 1.1063476e-38
0.41493383 -0.52515602 0.60981673 1.097128e-38
0.42533383 -0.52484328 0.6098491 1.1063476e-38
0.43496767 -0.52499944 0.60999918 1.1063476e-38
0.44487128 -0.52518088 0.60999918 1.1063476e-38
0.45325267 -0.52533424 0.60999942 1.1063476e-38
0.2876032 -0.51505297 0.60999966 1.1063476e-38
0.29451838 -0.51512903 0.60999936 1.1063476e-38
0.30460212 -0.51515996 0.60999942 1.1063476e-38
0.31500292 -0.51501524 0.60999924 1.1063476e-38
0.32502118 -0.5149675 0.60999918 1.1063476e-38
0.33507487 -0.514884 0.60999936 1.1063476e-38
0.34533897 -0.51498985 0.60999912 1.1063476e-38
0.3550393 -0.51489609 0.60999918 1.1063476e-38
0.36514685 -0.51488972 0.60999918 1.1063476e-38
0.37533426 -0.51488942 0.60999918 1.1063476e-38
0.3849673 -0.5150367 0.60999924 1.1063476e-38
0.39477873 -0.51518703 0.60999918 1.1063476e-38
0.40464801 -0.51499379 0.6099993 1.1063476e-38
0.41493821 -0.51496428 0.60999918 1.1063476e-38
0.42535752 -0.51506495 0.60999918 1.1063476e-38
0.43509355 -0.51515895 0.60999918 1.1063476e-38
0.44499925 -0.5152545 0.60999918 1.1063476e-38
0.45338255 -0.51533556 0.60999942 1.1063476e-38
0.28760302 -0.50516868 0.60999966 1.1063476e-38
0.29443452 -0.50517535 0.60999942 1.1063476e-38
0.30459219 -0.50518566 0.60999942 1.1063476e-38
0.31495938 -0.50519598 0.60999936 1.1063476e-38
0.32481176 -0.50501758 0.60999918 1.1063476e-38
0.3350296 -0.50487059 0.60999924 1.1063476e-38
0.34533921 -0.50492746 0.60999918 1.1063476e-38
0.35515034 -0.50483388 0.60999918 1.1063476e-38
0.36514693 -0.50494152 0.60999918 1.1063476e-38
0.37533429 -0.50484639 0.60999918 1.1063476e-38
0.38496739 -0.50490391 0.60999924 1.1063476e-38
0.39477885 -0.50496274 0.60999918 1.1063476e-38
0.40476444 -0.50491756 0.60999924 1.1063476e-38
0.41493821 -0.50487095 0.60999912 1.1063476e-38
0.42529565 -0.50493062 0.60999918 1.1063476e-38
0.43503052 -0.50493717 0.60999918 1.1063476e-38
0.44487122 -0.50532579 0.60999918 1.1063476e-38
0.45325264 -0.5053342 0.60999942 1.1063476e-38
0.28760311 -0.49506453 0.60999966 1.1063476e-38
0.29451826 -0.495222 0.60999954 1.1063476e-38
0.30467761 -0.49513075 0.60999966 1.1063476e-38
0.31504658 -0.49503756 0.60999936 1.1063476e-38
0.32491621 -0.49494901 0.60999918 1.1063476e-38
0.33492562 -0.49494109 0.6099993 1.1063476e-38
0.34533918 -0.49516389 0.60999918 1.1155671e-38
0.35515031 -0.49497896 0.60999918 1.1155671e-38
0.36514679 -0.49499351 0.60999918 1.1155671e-38
0.37533432 -0.4948034 0.60999918 1.1155671e-38
0.3849673 -0.49477091 0.60999924 1.1155671e-38
0.39477912 -0.49505159 0.60999918 1.1155671e-38
0.40482402 -0.49496794 0.6099993 1.1155671e-38
0.41493785 -0.49488378 0.60999924 1.1155671e-38
0.42523384 -0.49479806 0.6099993 1.1155671e-38
0.43496767 -0.49471709 0.60999924 1.1155671e-38
0.44493529 -0.49501634 0.60999918 1.1155671e-38
0.45338264 -0.49533325 0.60999942 1.1155671e-38
0.2876032 -0.48474082 0.60999966 1.1063476e-38
0.29438376 -0.4851844 0.60999954 1.1063476e-38
0.30459213 -0.48507741 0.60999978 1.1063476e-38
0.31495932 -0.48488086 0.60999942 1.1063476e-38
0.32491639 -0.48508266 0.60999918 1.1063476e-38
0.33508924 -0.48493564 0.6099993 1.1063476e-38
0.34533924 -0.48500183 0.60999918 1.1155671e-38
0.35515022 -0.48512408 0.60999918 1.1155671e-38
0.36514685 -0.48504528 0.60999918 1.1155671e-38
0.37533417 -0.48476031 0.60999918 1.1155671e-38
0.38490984 -0.48500136 0.6099993 1.1155671e-38
0.39477894 -0.48514023 0.60999918 1.1155671e-38
0.40476426 -0.48501933 0.60999924 1.1155671e-38
0.4148722 -0.48499992 0.60999912 1.1155671e-38
0.42535743 -0.48503852 0.60999924 1.1155671e-38
0.43509355 -0.48487321 0.60999924 1.1155671e-38
0.4449994 -0.48470512 0.60999924 1.1155671e-38
0.45325252 -0.48533428 0.60999942 1.1155671e-38
0.28760317 -0.47485635 0.60999966 1.1063476e-38
0.29446614 -0.4750672 0.60999966 1.1063476e-38
0.30467778 -0.47502089 0.6099999 1.1063476e-38
0.31493512 -0.47488794 0.6099993 1.1063476e-38
0.32491651 -0.47511864 0.60999918 1.1063476e-38
0.33495903 -0.47500187 0.6099993 1.1063476e-38
0.34533909 -0.47483978 0.60999918 1.1155671e-38
0.35509464 -0.47506571 0.60999918 1.1155671e-38
0.36514685 -0.47509724 0.60999918 1.1155671e-38
0.37524226 -0.47481611 0.60999924 1.1155671e-38
0.38496727 -0.4752295 0.60999924 1.1155671e-38
0.39477885 -0.47491592 0.60999918 1.1155671e-38
0.40470454 -0.47507223 0.6099993 1.1155671e-38
0.41500548 -0.47491249 0.60999918 1.1155671e-38
0.42519736 -0.47502789 0.60999924 1.1155671e-38
0.43496767 -0.47503373 0.60999924 1.1155671e-38
0.44487128 -0.47477975 0.60999924 1.1155671e-38
0.45328635 -0.47513449 0.60999948 1.1155671e-38
0.28760326 -0.46497196 0.60999966 1.1063476e-38
0.29447609 -0.46503228 0.60999978 1.1063476e-38
0.30459228 -0.46496934 0.60999995 1.1063476e-38
0.31503645 -0.46498808 0.6099993 1.1063476e-38
0.32486385 -0.4649578 0.60999918 1.1063476e-38
0.33514708 -0.46499437 0.6099993 1.1063476e-38
0.34528354 -0.46497509 0.60999918 1.1155671e-38
0.35520685 -0.46491334 0.60999918 1.1155671e-38
0.36514685 -0.46514907 0.60999918 1.1155671e-38
0.37533426 -0.46487999 0.60999918 1.1155671e-38
0.38496739 -0.46509671 0.6099993 1.1155671e-38
0.39464909 -0.46489662 0.60999924 1.1155671e-38
0.40476426 -0.46512207 0.60999924 1.1155671e-38
0.41483501 -0.4650256 0.60999918 1.1155671e-38
0.42533594 -0.46490321 0.6099993 1.1155671e-38
0.43498987 -0.4650591 0.60999924 1.1155671e-38
0.44499931 -0.46484795 0.60999924 1.1155671e-38
0.45335132 -0.46514678 0.60999948 1.1155671e-38
0.28760317 -0.45508748 0.60999966 1.1063476e-38
0.29448679 -0.45499718 0.60999984 1.1063476e-38
0.30460227 -0.45499465 0.60999942 1.1063476e-38
0.31503597 -0.45500153 0.60999942 1.1063476e-38
0.32489038 -0.45499539 0.60999918 1.1063476e-38
0.33491224 -0.45497978 0.6099993 1.1063476e-38
0.345339 -0.45501447 0.60999918 1.1155671e-38
0.35515022 -0.45495576 0.60999918 1.1155671e-38
0.36506045 -0.45509779 0.60999918 1.1155671e-38
0.37530375 -0.45493877 0.60999924 1.1155671e-38
0.3849673 -0.45496386 0.6099993 1.1155671e-38
0.39490834 -0.45509708 0.60999924 1.1155671e-38
0.40471721 -0.45492682 0.60981512 1.1155671e-38
0.41503653 -0.45504412 0.60999918 1.1155671e-38
0.42535749 -0.45501211 0.6099993 1.1155671e-38
0.43503007 -0.45496956 0.6099993 1.1155671e-38
0.44498143 -0.45492244 0.60980546 1.1155671e-38
0.45458996 -0.4547421 0.60999936 1.1063476e-38
0.46527034 -0.45366102 0.60999954 1.097128e-38
0.47483224 -0.45363846 0.6099996 1.097128e-38
0.48458838 -0.45348364 0.6099996 1.097128e-38
0.49524498 -0.45355913 0.60999972 1.097128e-38
0.50532401 -0.45360878 0.60999972 1.097128e-38
0.51470554 -0.45354664 0.60999972 1.097128e-38
0.5252161 -0.45366549 0.60999972 1.097128e-38
0.53456521 -0.45366171 0.60999995 1.097128e-38
0.85856718 -0.45276934 0.60995257 1.1063476e-38
0.28760314 -0.44520304 0.60999966 1.1063476e-38
0.29449707 -0.44495896 0.61000007 1.1063476e-38
0.30461368 -0.44502813 0.6099999 1.1063476e-38
0.31496939 -0.44500786 0.6099996 1.1063476e-38
0.32491612 -0.44503227 0.60999918 1.1063476e-38
0.33509985 -0.44496962 0.6099993 1.1063476e-38
0.3453947 -0.44505224 0.60999918 1.1155671e-38
0.35506558 -0.44499931 0.60999918 1.1155671e-38
0.36514673 -0.44505066 0.60999918 1.1155671e-38
0.37533426 -0.44499904 0.60999918 1.1155671e-38
0.38491264 -0.444949 0.6099993 1.1155671e-38
0.39477873 -0.44507775 0.60999918 1.1155671e-38
0.40488046 -0.44497871 0.6099993 1.1155671e-38
0.41487098 -0.44494739 0.60999918 1.1155671e-38
0.42517489 -0.44513193 0.6099993 1.1155671e-38
0.43507177 -0.44487888 0.6099993 1.1155671e-38
0.44499931 -0.4449909 0.6099993 1.1155671e-38
0.45505816 -0.44512117 0.6099993 1.1063476e-38
0.46524903 -0.44498327 0.6099993 1.097128e-38
0.47483194 -0.44501898 0.60999948 1.097128e-38
0.48455629 -0.44492596 0.60999948 1.097128e-38
0.49527216 -0.44504794 0.6099999 1.097128e-38
0.5055232 -0.4449341 0.60999984 1.097128e-38
0.51470512 -0.44495922 0.60999978 1.097128e-38
0.52502453 -0.44521281 0.61000001 1.097128e-38
0.53530473 -0.44464651 0.60999984 1.097128e-38
0.54347074 -0.4440569 0.60999995 1.097128e-38
0.66235745 -0.44633594 0.60616249 1.097128e-38
0.28790316 -0.43372905 0.60882103 7.5600416e-39
0.29466012 -0.43331644 0.60816145 7.0068679e-39
0.30471912 -0.43336496 0.60824811 7.0068679e-39
0.31496128 -0.4333463 0.60815632 7.0068679e-39
0.32504308 -0.43321601 0.60799724 6.6380854e-39
0.33496973 -0.43504068 0.6099993 1.1063476e-38
0.34523034 -0.43498865 0.60999918 1.1063476e-38
0.35512185 -0.43494496 0.60999918 1.1063476e-38
0.36511779 -0.43500099 0.60999918 1.1063476e-38
0.37533432 -0.4349561 0.60999918 1.1063476e-38
0.3849673 -0.43494001 0.60999924 1.1063476e-38
0.39471528 -0.43495783 0.60999924 1.1063476e-38
0.40466955 -0.43502966 0.60999924 1.1063476e-38
0.41490397 -0.43496135 0.60999918 1.1063476e-38
0.42535442 -0.43500122 0.60999924 1.1063476e-38
0.43509355 -0.43490198 0.6099993 1.1063476e-38
0.44487113 -0.43507004 0.6099993 1.1063476e-38
0.45497155 -0.43509763 0.6099993 1.1063476e-38
0.46527085 -0.43500781 0.60999936 1.097128e-38
0.47472239 -0.43498605 0.60999948 1.097128e-38
0.48460236 -0.43492246 0.60999972 1.097128e-38
0.49548903 -0.43508434 0.6099999 1.097128e-38
0.50540787 -0.43496031 0.60999978 1.097128e-38
0.51480633 -0.43504092 0.60981518 1.097128e-38
0.52512741 -0.4351382 0.61000001 1.097128e-38
0.53485709 -0.43454558 0.60999984 1.097128e-38
0.54347074 -0.43493479 0.60999995 1.097128e-38
0.57221562 -0.4347333 0.60585099 1.097128e-38
0.3299984 -0.42499074 0.60405153 0
0.33505324 -0.4251138 0.60999852 1.097128e-38
0.34536707 -0.42492762 0.6099987 1.097128e-38
0.35515064 -0.42499021 0.6099987 1.097128e-38
0.36514714 -0.42495215 0.60999876 1.097128e-38
0.37533456 -0.42491332 0.60999876 1.097128e-38
0.38498601 -0.42492667 0.60999882 1.097128e-38
0.39477918 -0.42494312 0.60999876 1.097128e-38
0.40480334 -0.42508489 0.60999882 1.097128e-38
0.41493851 -0.42497474 0.60999882 1.097128e-38
0.42525563 -0.42486215 0.60999912 1.097128e-38
0.43496764 -0.4250679 0.60999918 1.097128e-38
0.44489393 -0.42500791 0.60999918 1.097128e-38
0.45499185 -0.42495957 0.6099993 1.097128e-38
0.46529341 -0.42503175 0.60999936 1.097128e-38
0.47488695 -0.42496094 0.60999948 1.097128e-38
0.48448357 -0.42504019 0.60999954 1.097128e-38
0.49520263 -0.42498961 0.6099999 1.097128e-38
0.50540757 -0.4249914 0.60999978 1.097128e-38
0.51476556 -0.42503145 0.60999984 1.097128e-38
0.52524716 -0.42510459 0.60986596 1.097128e-38
0.53550506 -0.42491606 0.60999978 1.097128e-38
0.54347074 -0.42365655 0.60999995 1.097128e-38
0.32999837 -0.41531858 0.60405141 0
0.33499569 -0.41501814 0.60999846 1.097128e-38
0.34542292 -0.41496333 0.6099987 1.097128e-38
0.35508597 -0.41498023 0.60985428 1.0694693e-38
0.36514714 -0.41500399 0.60999876 1.097128e-38
0.37536523 -0.41497222 0.60999876 1.097128e-38
0.38496763 -0.41491577 0.60999876 1.097128e-38
0.39474642 -0.41503233 0.60999882 1.097128e-38
0.40476441 -0.41500968 0.60999882 1.097128e-38
0.4149715 -0.41498709 0.60999888 1.097128e-38
0.42527488 -0.41498423 0.609999 1.097128e-38
0.43498993 -0.41509247 0.60999912 1.097128e-38
0.44491372 -0.41495806 0.60999924 1.097128e-38
0.45503578 -0.41494131 0.6099993 1.097128e-38
0.46531621 -0.41506183 0.6099993 1.097128e-38
0.47477743 -0.414929 0.60999948 1.097128e-38
0.48457879 -0.41503355 0.60999954 1.097128e-38
0.49541938 -0.41502351 0.6099999 1.097128e-38
0.50542426 -0.41498306 0.60975826 1.097128e-38
0.51458448 -0.41498306 0.60999984 1.097128e-38
0.52497339 -0.41498691 0.61000001 1.097128e-38
0.5354206 -0.41514203 0.60999984 1.097128e-38
0.5424906 -0.41551548 0.6099999 1.097128e-38
0.3299984 -0.40517098 0.60419637 0
0.33504167 -0.40500444 0.60999852 1.0879084e-38
0.34528396 -0.40500283 0.6099987 1.097128e-38
0.35515061 -0.40507889 0.6099987 1.097128e-38
0.36514717 -0.40505591 0.60999876 1.097128e-38
0.37533441 -0.40503195 0.60999876 1.097128e-38
0.38492358 -0.40514183 0.60988653 1.097128e-38
0.39474759 -0.40512159 0.60999882 1.097128e-38
0.40472588 -0.40493545 0.60999882 1.097128e-38
0.41490376 -0.40510738 0.60999888 1.097128e-38
0.42529574 -0.40509954 0.60999894 1.097128e-38
0.43503016 -0.4050011 0.60999906 1.097128e-38
0.44493538 -0.40490121 0.60999918 1.097128e-38
0.45499176 -0.40492961 0.6099993 1.097128e-38
0.46522814 -0.40495175 0.6099993 1.097128e-38
0.47494161 -0.40489998 0.60999948 1.097128e-38
0.48460242 -0.40489873 0.60999942 1.097128e-38
0.49529779 -0.40505308 0.6099999 1.097128e-38
0.50540781 -0.40489373 0.60999984 1.097128e-38
0.51478696 -0.40502873 0.60986322 1.097128e-38
0.52507597 -0.40491068 0.61000001 1.097128e-38
0.53545725 -0.40483287 0.60999978 1.097128e-38
0.5434708 -0.40425134 0.60999995 1.097128e-38
0.5825125 -0.40313923 0.60052818 1.097128e-38
0.32999843 -0.39483824 0.60389996 0
0.33502987 -0.39507765 0.60999852 1.0879084e-38
0.34533936 -0.39503902 0.6099987 1.0879084e-38
0.35517851 -0.39502177 0.6099987 1.0879084e-38
0.36514717 -0.39510781 0.60999876 1.097128e-38
0.37533444 -0.39498886 0.60999876 1.097128e-38
0.38496757 -0.3951326 0.60999882 1.097128e-38
0.39477891 -0.39500111 0.60999882 1.097128e-38
0.40476418 -0.39511222 0.60999882 1.097128e-38
0.41490531 -0.39512071 0.60999888 1.097128e-38
0.42531544 -0.39496422 0.60999894 1.097128e-38
0.43500984 -0.39503467 0.60999912 1.097128e-38
0.44493523 -0.39497328 0.60999918 1.097128e-38
0.45503569 -0.39491054 0.6099993 1.097128e-38
0.46531621 -0.39485312 0.6099993 1.097128e-38
0.4747754 -0.39502618 0.60999948 1.097128e-38
0.48448351 -0.39501956 0.60999948 1.097128e-38
0.49534616 -0.39495781 0.6099999 1.097128e-38
0.50552708 -0.39492387 0.60999984 1.097128e-38
0.51482636 -0.39489293 0.60999984 1.097128e-38
0.5251019 -0.39496785 0.60999995 1.097128e-38
0.53567386 -0.39498827 0.60999984 1.097128e-38
0.54347265 -0.39446798 0.61000001 1.097128e-38
0.32999837 -0.3849203 0.60405147 0
0.3349362 -0.38506415 0.60999852 1.0879084e-38
0.34531242 -0.38497788 0.60999864 1.0879084e-38
0.35515061 -0.3849664 0.6099987 1.0879084e-38
0.3651759 -0.38505676 0.60999876 1.0879084e-38
0.37533459 -0.38494581 0.60999876 1.097128e-38
0.38494954 -0.38512257 0.60999876 1.097128e-38
0.39481094 -0.3848798 0.60999876 1.097128e-38
0.40474567 -0.38516554 0.60999882 1.097128e-38
0.41497108 -0.38491881 0.60999888 1.097128e-38
0.42527482 -0.38496014 0.60999912 1.097128e-38
0.43494877 -0.38506067 0.60999906 1.097128e-38
0.44493538 -0.38504526 0.60999918 1.097128e-38
0.45499182 -0.38489962 0.6099993 1.097128e-38
0.46522537 -0.38500348 0.6099993 1.097128e-38
0.47477731 -0.3851538 0.60999948 1.097128e-38
0.48457888 -0.38501042 0.60999936 1.097128e-38
0.49532101 -0.38499475 0.60999978 1.097128e-38
0.50534827 -0.38495582 0.60999984 1.097128e-38
0.51464486 -0.38484818 0.60999984 1.097128e-38
0.52517915 -0.38502654 0.61000001 1.097128e-38
0.53567302 -0.38488552 0.60999978 1.097128e-38
0.54293674 -0.38545418 0.60999995 1.097128e-38
0.70488828 -0.38569763 0.60591865 1.1063476e-38
0.86008161 -0.38647369 0.60816938 1.1063476e-38
0.32999837 -0.3752481 0.60405135 0
0.3350296 -0.37505302 0.60999852 1.0879084e-38
0.34531155 -0.37491599 0.6099987 1.0879084e-38
0.35515034 -0.37501091 0.6099987 1.0879084e-38
0.36514723 -0.37500826 0.60999876 1.0879084e-38
0.37533444 -0.37490273 0.60999876 1.0879084e-38
0.38496754 -0.37510836 0.60999876 1.0879084e-38
0.39481121 -0.3749679 0.60999876 1.097128e-38
0.40482122 -0.37509108 0.60999882 1.097128e-38
0.41497251 -0.37493092 0.60999888 1.097128e-38
0.42529577 -0.37507489 0.609999 1.097128e-38
0.43511233 -0.37497339 0.60999918 1.097128e-38
0.44495642 -0.37498748 0.60999918 1.097128e-38
0.45503578 -0.37487972 0.6099993 1.097128e-38
0.46531719 -0.37500334 0.60995543 1.097128e-38
0.47494152 -0.37512073 0.60999942 1.097128e-38
0.48468176 -0.37496096 0.60968202 1.0879084e-38
0.49534577 -0.37502688 0.60999984 1.097128e-38
0.50546718 -0.37498501 0.60999984 1.097128e-38
0.5147053 -0.37496397 0.60999978 1.097128e-38
0.52502459 -0.37495047 0.61000001 1.097128e-38
0.53574497 -0.37501922 0.60999984 1.097128e-38
0.54288334 -0.37454236 0.60999984 1.097128e-38
0.3299984 -0.36510572 0.60419637 0
0.3351239 -0.36503917 0.60999858 1.0879084e-38
0.34533957 -0.36505154 0.6099987 1.0879084e-38
0.35506585 -0.36495647 0.6099987 1.0879084e-38
0.36514711 -0.36506015 0.60999876 1.0879084e-38
0.37527323 -0.36496183 0.60999876 1.0879084e-38
0.38496763 -0.36497557 0.60999876 1.0879084e-38
0.39477924 -0.36505809 0.60999876 1.0879084e-38
0.40470779 -0.36502108 0.60999882 1.097128e-38
0.41490442 -0.36505365 0.60999882 1.097128e-38
0.42521518 -0.36506441 0.609999 1.097128e-38
0.43503079 -0.36487505 0.60999912 1.097128e-38
0.44491425 -0.36506453 0.60999918 1.097128e-38
0.45499182 -0.36486959 0.6099993 1.097128e-38
0.46527085 -0.36505726 0.6099993 1.097128e-38
0.47472584 -0.36493933 0.60999948 1.097128e-38
0.48455563 -0.36512953 0.60999936 1.097128e-38
0.49525034 -0.36492589 0.6099999 1.097128e-38
0.5052889 -0.3650209 0.60999984 1.097128e-38
0.51464683 -0.36492023 0.60999984 1.097128e-38
0.5251019 -0.36500913 0.60999995 1.097128e-38
0.53552979 -0.36463514 0.60999984 1.097128e-38
0.54319078 -0.36518687 0.60999995 1.097128e-38
0.32999843 -0.35476229 0.60389978 0
0.33502987 -0.35502666 0.60999852 1.0879084e-38
0.34531212 -0.35508695 0.60999864 1.0879084e-38
0.35509911 -0.3549076 0.60999209 1.0786889e-38
0.36508954 -0.35501069 0.60999876 1.0879084e-38
0.3753345 -0.35502216 0.60999876 1.0879084e-38
0.38502231 -0.35496145 0.60999882 1.0879084e-38
0.3946836 -0.35504499 0.60999876 1.0879084e-38
0.40468687 -0.35506994 0.60999882 1.0879084e-38
0.41490543 -0.35496089 0.60999888 1.0879084e-38
0.42547327 -0.35510886 0.60984349 1.0879084e-38
0.43505135 -0.3549037 0.60999906 1.097128e-38
0.44485196 -0.3550052 0.60999918 1.097128e-38
0.45492458 -0.35497862 0.60999924 1.097128e-38
0.46527115 -0.35495323 0.6099993 1.097128e-38
0.47483188 -0.35490674 0.60999948 1.097128e-38
0.48446193 -0.35512036 0.60999942 1.097128e-38
0.49544123 -0.35483235 0.60999984 1.097128e-38
0.50540763 -0.35504913 0.60999984 1.097128e-38
0.51483852 -0.35481372 0.60993081 1.0879084e-38
0.52512741 -0.35506505 0.60999995 1.097128e-38
0.53567255 -0.35489249 0.60999984 1.097128e-38
0.54257977 -0.35460141 0.60999984 1.097128e-38
0.32999843 -0.34484974 0.60405147 0
0.33493614 -0.34501693 0.60999852 1.0879084e-38
0.34533948 -0.34512624 0.6099987 1.0879084e-38
0.35517824 -0.34494564 0.6099987 1.0879084e-38
0.36514711 -0.34496137 0.6099987 1.0879084e-38
0.37533444 -0.34497908 0.60999876 1.0879084e-38
0.38491297 -0.34507367 0.60999876 1.0879084e-38
0.39484242 -0.34502685 0.60999882 1.0879084e-38
0.40476453 -0.34500039 0.60999882 1.0879084e-38
0.41490456 -0.34486356 0.60999888 1.0879084e-38
0.42529583 -0.3450501 0.60999888 1.0879084e-38
0.43500993 -0.34506714 0.609999 1.097128e-38
0.44508475 -0.34495041 0.60999918 1.097128e-38
0.45509839 -0.34496653 0.60999924 1.097128e-38
0.46527094 -0.34484932 0.6099993 1.097128e-38
0.4748868 -0.34503067 0.60999948 1.097128e-38
0.48464972 -0.34511623 0.60999936 1.097128e-38
0.49534571 -0.34499717 0.60999966 1.097128e-38
0.50546563 -0.34491661 0.60999984 1.097128e-38
0.514705 -0.34498954 0.60999984 1.097128e-38
0.52497339 -0.34499356 0.61000001 1.097128e-38
0.53544021 -0.3448489 0.60999978 1.097128e-38
0.54235065 -0.34717211 0.60999995 1.097128e-38
0.81756419 -0.34678125 0.60833734 1.1063476e-38
0.32999843 -0.33517757 0.60405147 0
0.33502978 -0.33500212 0.60999852 1.0879084e-38
0.34533966 -0.33506379 0.60999864 1.0879084e-38
0.35515052 -0.33488771 0.6099987 1.0879084e-38
0.36514717 -0.3350133 0.60999876 1.0879084e-38
0.3753345 -0.33493602 0.60999876 1.0879084e-38
0.38496763 -0.33505949 0.60999876 1.0879084e-38
0.39474738 -0.33501443 0.60999876 1.0879084e-38
0.40484199 -0.33492881 0.60999882 1.0879084e-38
0.41493776 -0.33498481 0.60999888 1.0879084e-38
0.42521524 -0.33504176 0.60999906 1.0879084e-38
0.43494877 -0.3350957 0.60999912 1.0879084e-38
0.44478586 -0.335026 0.60999918 1.0879084e-38
0.45492452 -0.33494973 0.60999924 1.097128e-38
0.46518019 -0.3350043 0.60999936 1.097128e-38
0.47477731 -0.33500618 0.60999948 1.097128e-38
0.48455563 -0.33510703 0.60999972 1.097128e-38
0.49534571 -0.33516449 0.6099999 1.097128e-38
0.50540775 -0.33495 0.60999978 1.097128e-38
0.5147053 -0.3351059 0.60999978 1.097128e-38
0.52414954 -0.33614865 0.60999972 1.097128e-38
0.53373235 -0.33920932 0.6099999 1.097128e-38
0.80825239 -0.33507538 0.60913497 1.1063476e-38
0.3299984 -0.32527044 0.60420269 0
0.33506468 -0.32490128 0.60999846 1.0879084e-38
0.34533954 -0.32500148 0.6099987 1.0879084e-38
0.35515061 -0.32503271 0.6099987 1.0879084e-38
0.36514717 -0.32506514 0.60999876 1.0879084e-38
0.37533444 -0.32489294 0.60999876 1.0879084e-38
0.38496763 -0.3249267 0.60999876 1.0879084e-38
0.39471555 -0.32499382 0.60999882 1.0879084e-38
0.40476459 -0.325102 0.60999882 1.0879084e-38
0.41497198 -0.3251051 0.60999888 1.0879084e-38
0.42537612 -0.32503372 0.60999906 1.0879084e-38
0.43511248 -0.3250013 0.60999906 1.0879084e-38
0.44501847 -0.32496828 0.60999918 1.0879084e-38
0.45509848 -0.32493469 0.6099993 1.0879084e-38
0.46536189 -0.32515961 0.6099993 1.097128e-38
0.47483194 -0.32513019 0.60999948 1.097128e-38
0.48446208 -0.32510021 0.6099996 1.097128e-38
0.49525034 -0.32506669 0.60999972 1.097128e-38
0.50535023 -0.32498485 0.60999984 1.097128e-38
0.51476395 -0.32505643 0.60999984 1.097128e-38
0.52129394 -0.32498574 0.60999972 1.097128e-38
0.32999843 -0.31514364 0.60405165 0
0.33502999 -0.3149763 0.60999858 1.0879084e-38
0.34536654 -0.31503946 0.60999864 1.0879084e-38
0.35509393 -0.31507552 0.6099987 1.0879084e-38
0.36514717 -0.31511703 0.60999876 1.0879084e-38
0.37533453 -0.31484988 0.60999876 1.0879084e-38
0.38488054 -0.31500661 0.60991931 1.0879084e-38
0.39481091 -0.31498215 0.60999876 1.0879084e-38
0.40476453 -0.31503034 0.60999882 1.0879084e-38
0.41490474 -0.31511548 0.60999882 1.0879084e-38
0.42529574 -0.31502539 0.60999894 1.0879084e-38
0.43503079 -0.31490651 0.60999906 1.0879084e-38
0.44484767 -0.31504163 0.60999918 1.0879084e-38
0.45492458 -0.31492081 0.6099993 1.0879084e-38
0.46518478 -0.31505686 0.6099993 1.0879084e-38
0.47477925 -0.31509474 0.60999948 1.097128e-38
0.4846496 -0.31509137 0.60999936 1.097128e-38
0.49544138 -0.3149668 0.6099996 1.097128e-38
0.50540763 -0.31485182 0.60999984 1.097128e-38
0.5147053 -0.31501406 0.60999978 1.097128e-38
0.52129394 -0.31521153 0.60999972 1.097128e-38
0.84256476 -0.31906477 0.60812908 1.097128e-38
0.3299984 -0.30501279 0.6038999 0
0.33499542 -0.30505243 0.60999852 1.0879084e-38
0.3452839 -0.30497482 0.6099987 1.0879084e-38
0.35524908 -0.30502892 0.60997409 1.0879084e-38
0.36506078 -0.30506566 0.60999876 1.0879084e-38
0.37524244 -0.3049075 0.60999876 1.0879084e-38
0.38496757 -0.30514425 0.60999876 1.0879084e-38
0.3946836 -0.30496347 0.60999876 1.0879084e-38
0.40468693 -0.30496067 0.60999882 1.0879084e-38
0.41483924 -0.30502146 0.60999882 1.0879084e-38
0.42521524 -0.3050192 0.60999894 1.0879084e-38
0.43492585 -0.30493748 0.60999894 1.0879084e-38
0.44501853 -0.30511084 0.60999918 1.0879084e-38
0.45503548 -0.30502954 0.60999924 1.0879084e-38
0.46536195 -0.30495015 0.6099993 1.0879084e-38
0.4748866 -0.30491912 0.60999948 1.0879084e-38
0.48455563 -0.30508453 0.60999948 1.0879084e-38
0.49537703 -0.30487007 0.6097495 1.097128e-38
0.50540793 -0.30504367 0.60999978 1.097128e-38
0.51464683 -0.30497316 0.60999984 1.097128e-38
0.52224296 -0.30514696 0.60999978 1.097128e-38
0.3299467 -0.29490113 0.60445279 0
0.33502969 -0.2949512 0.60999852 1.0879084e-38
0.34536707 -0.29501402 0.60999864 1.0879084e-38
0.35515058 -0.29506585 0.6099987 1.0879084e-38
0.36514714 -0.29501861 0.60999876 1.0879084e-38
0.37533453 -0.29496956 0.60999876 1.0879084e-38
0.38496763 -0.2950114 0.60999876 1.0879084e-38
0.39487618 -0.29505593 0.60999876 1.0879084e-38
0.40474576 -0.29500818 0.60999882 1.0879084e-38
0.41503891 -0.29493189 0.60999882 1.0879084e-38
0.42537612 -0.29500684 0.60999894 1.0879084e-38
0.43507147 -0.29496911 0.60999906 1.0879084e-38
0.44482842 -0.2950573 0.60999918 1.0879084e-38
0.45499209 -0.29502195 0.6099993 1.0879084e-38
0.46516061 -0.29497752 0.6099993 1.0879084e-38
0.47488695 -0.29487845 0.60999948 1.0879084e-38
0.48446199 -0.2950801 0.60999942 1.0879084e-38
0.49522337 -0.29490384 0.6099999 1.0879084e-38
0.50546563 -0.29506952 0.60999978 1.097128e-38
0.5147053 -0.29492319 0.60999978 1.097128e-38
0.52224296 -0.29509345 0.60999972 1.097128e-38
0.87357569 -0.29228821 0.602597 1.097128e-38
0.32999843 -0.28497565 0.60405135 0
0.33497021 -0.2850242 0.60999852 1.0879084e-38
0.34525642 -0.28505051 0.60999864 1.0879084e-38
0.35506588 -0.28511024 0.6099987 1.0879084e-38
0.36514705 -0.28507045 0.60999876 1.0879084e-38
0.37533444 -0.28492656 0.60999876 1.0879084e-38
0.38496763 -0.28487858 0.60999876 1.0879084e-38
0.39477912 -0.28503844 0.60999876 1.0879084e-38
0.40485889 -0.2849378 0.60999882 1.0879084e-38
0.41497186 -0.28494281 0.60999882 1.0879084e-38
0.42529577 -0.28500062 0.609999 1.0879084e-38
0.43500969 -0.28500584 0.60999906 1.0879084e-38
0.44493562 -0.28500256 0.60999918 1.0879084e-38
0.45503548 -0.28499874 0.60999924 1.0879084e-38
0.46527061 -0.28500369 0.6099993 1.0879084e-38
0.47477728 -0.28485861 0.60999948 1.0879084e-38
0.4846496 -0.28506646 0.60999942 1.0879084e-38
0.49537 -0.28507432 0.60999966 1.0879084e-38
0.50528896 -0.28494585 0.60999978 1.0879084e-38
0.51470512 -0.2850396 0.60999984 1.0879084e-38
0.52290606 -0.28478318 0.60984004 1.0879084e-38
0.77153432 -0.28582525 0.60941523 1.097128e-38
0.3299984 -0.27507317 0.60405165 0
0.33504182 -0.27501154 0.60999846 1.0879084e-38
0.34533936 -0.27508864 0.6099987 1.0879084e-38
0.35515046 -0.27505505 0.6099987 1.0879084e-38
0.36514693 -0.27502084 0.60999876 1.0879084e-38
0.37533471 -0.27498591 0.60999876 1.0879084e-38
0.38494954 -0.27486444 0.60999876 1.0879084e-38
0.39474741 -0.27491874 0.60999876 1.0879084e-38
0.40476459 -0.27498931 0.60999882 1.0879084e-38
0.41490468 -0.27495554 0.60999882 1.0879084e-38
0.42521524 -0.27499664 0.609999 1.0879084e-38
0.43511239 -0.27502915 0.60999906 1.0879084e-38
0.44504189 -0.27494511 0.60999918 1.0879084e-38
0.45500645 -0.27508479 0.60993278 1.0879084e-38
0.46538171 -0.27502707 0.6099993 1.0879084e-38
0.47483191 -0.27498025 0.60999948 1.0879084e-38
0.48444167 -0.27493268 0.60999936 1.0879084e-38
0.49548677 -0.27515942 0.60987622 1.0879084e-38
0.50546718 -0.2749806 0.60999978 1.0879084e-38
0.5146448 -0.2749899 0.60999984 1.0879084e-38
0.52308011 -0.27514613 0.60999972 1.0879084e-38
0.32999837 -0.26493677 0.60389984 0
0.33501783 -0.26500118 0.60999852 1.0879084e-38
0.34539402 -0.26502529 0.60999864 1.0879084e-38
0.35518914 -0.26517531 0.60980624 1.0879084e-38
0.36514711 -0.2649712 0.60999876 1.0879084e-38
0.37533453 -0.26504532 0.60999876 1.0879084e-38
0.38496771 -0.26485434 0.60999876 1.0879084e-38
0.39477909 -0.2650075 0.60999882 1.0879084e-38
0.40466973 -0.26504332 0.60999882 1.0879084e-38
0.4148373 -0.26497021 0.60999882 1.0879084e-38
0.42537609 -0.26497996 0.60999888 1.0879084e-38
0.43492556 -0.26506731 0.60999912 1.0879084e-38
0.44485492 -0.26495436 0.60989362 1.0879084e-38
0.45503554 -0.26496798 0.60999924 1.0879084e-38
0.46518034 -0.26505917 0.6099993 1.0879084e-38
0.47477925 -0.26494706 0.60999948 1.0879084e-38
0.48457965 -0.26492602 0.60999936 1.0879084e-38
0.49534568 -0.26500666 0.60999984 1.0879084e-38
0.50540763 -0.26500717 0.60999978 1.0879084e-38
0.51461065 -0.26518261 0.6098839 1.0879084e-38
0.52420831 -0.26489243 0.6099999 1.0879084e-38
0.3299984 -0.25481117 0.60420263 0
0.33505335 -0.25507382 0.60999852 1.0879084e-38
0.34539494 -0.25496185 0.60999864 1.0879084e-38
0.35520616 -0.25504196 0.6099987 1.0879084e-38
0.36514714 -0.25502306 0.60999876 1.0879084e-38
0.37533444 -0.25500229 0.60999876 1.0879084e-38
0.38500485 -0.25496003 0.60999876 1.0879084e-38
0.39477897 -0.25499186 0.60999876 1.0879084e-38
0.40478349 -0.25497127 0.60999882 1.0879084e-38
0.41500527 -0.2549805 0.60999882 1.0879084e-38
0.42519242 -0.25510496 0.60999894 1.0879084e-38
0.435031 -0.25509661 0.609999 1.0879084e-38
0.44495666 -0.25483182 0.60999918 1.0879084e-38
0.454992 -0.25496191 0.60999924 1.0879084e-38
0.46529311 -0.25507537 0.6099993 1.0879084e-38
0.47488859 -0.2549237 0.60999948 1.0879084e-38
0.48464966 -0.25504163 0.60999948 1.0879084e-38
0.49525025 -0.2549144 0.6099996 1.0879084e-38
0.50534815 -0.25503522 0.60999978 1.0879084e-38
0.51470566 -0.25506505 0.60999984 1.0879084e-38
0.5246855 -0.25481468 0.60982782 1.0786889e-38
0.3299984 -0.24490511 0.60405141 0
0.33500639 -0.24506073 0.60999852 1.0879084e-38
0.3452839 -0.24500206 0.6099987 1.0879084e-38
0.35515061 -0.24498683 0.6099987 1.0879084e-38
0.36514717 -0.24507496 0.60999876 1.0879084e-38
0.37533444 -0.24495924 0.60999876 1.0879084e-38
0.38496757 -0.24507086 0.60999876 1.0879084e-38
0.39471412 -0.24497858 0.60999876 1.0879084e-38
0.40479991 -0.24480052 0.60989195 1.0879084e-38
0.414938 -0.24499451 0.60999882 1.0879084e-38
0.42531544 -0.24509513 0.60999894 1.0879084e-38
0.43507147 -0.24499881 0.60999912 1.0879084e-38
0.44491395 -0.24491334 0.60999918 1.0879084e-38
0.45503554 -0.24493717 0.60999924 1.0879084e-38
0.46524885 -0.24498104 0.6099993 1.0879084e-38
0.47477704 -0.2450446 0.60999948 1.0879084e-38
0.4844417 -0.2449131 0.60999936 1.0879084e-38
0.49532098 -0.24494158 0.60999966 1.0879084e-38
0.50540823 -0.24490902 0.60999978 1.0879084e-38
0.51476568 -0.24485995 0.60999984 1.0879084e-38
0.52507603 -0.24503721 0.61000001 1.0879084e-38
0.53180051 -0.24006306 0.6099999 1.0879084e-38
0.32999843 -0.23500262 0.60405177 0
0.33495963 -0.23504891 0.60999852 1.0879084e-38
0.34528509 -0.23494062 0.60999864 1.0879084e-38
0.35509399 -0.23502989 0.6099987 1.0879084e-38
0.36514702 -0.23512685 0.60999876 1.0879084e-38
0.37527648 -0.23489024 0.60994959 1.0879084e-38
0.38496765 -0.23493801 0.60999876 1.0879084e-38
0.39477912 -0.23506559 0.60999876 1.0879084e-38
0.40480313 -0.23494568 0.60999882 1.0879084e-38
0.41487077 -0.23501025 0.60999888 1.0879084e-38
0.42521542 -0.23495464 0.60999882 1.0879084e-38
0.4350096 -0.23503822 0.60999912 1.0879084e-38
0.44495666 -0.2349755 0.60999918 1.0879084e-38
0.45499209 -0.23493183 0.60999924 1.0879084e-38
0.4651801 -0.23499581 0.6099993 1.0879084e-38
0.4748325 -0.23501746 0.60999948 1.0879084e-38
0.48457974 -0.23490292 0.60999948 1.0879084e-38
0.49539381 -0.23497403 0.6099999 1.0879084e-38
0.50546718 -0.23478135 0.60999978 1.0879084e-38
0.51470524 -0.23497327 0.60999978 1.0879084e-38
0.52510202 -0.23509842 0.60999995 1.0879084e-38
0.53207624 -0.23378202 0.60999995 1.0879084e-38
0.32999843 -0.22510016 0.60405147 0
0.33510044 -0.22503471 0.60999852 1.0879084e-38
0.34533945 -0.22497591 0.60999864 1.0879084e-38
0.3552072 -0.22497672 0.6099987 1.0879084e-38
0.36514714 -0.22517872 0.60999876 1.0879084e-38
0.37533459 -0.22487314 0.60999876 1.0879084e-38
0.38493001 -0.22505021 0.60999876 1.0879084e-38
0.39477897 -0.22494557 0.60999882 1.0879084e-38
0.40472555 -0.22512658 0.60999882 1.0879084e-38
0.41493836 -0.22491457 0.60999882 1.0879084e-38
0.42535719 -0.2250814 0.60999894 1.0879084e-38
0.43501085 -0.22493753 0.60999888 1.0879084e-38
0.44491401 -0.22505771 0.60999918 1.0879084e-38
0.45505375 -0.22499101 0.60996234 1.0879084e-38
0.46533781 -0.22503193 0.6099993 1.0879084e-38
0.47488669 -0.22498901 0.60999948 1.0879084e-38
0.48446184 -0.22502008 0.60999936 1.0879084e-38
0.49529824 -0.22488341 0.60999966 1.0879084e-38
0.50540775 -0.22497065 0.60999978 1.0879084e-38
0.51470518 -0.22508962 0.60999984 1.0879084e-38
0.52502465 -0.22515339 0.61000001 1.0879084e-38
0.53276539 -0.22464699 0.60999984 1.0879084e-38
0.3299984 -0.21496741 0.60405111 0
0.33505335 -0.21502206 0.60999852 1.0879084e-38
0.34533933 -0.21511273 0.6099987 1.0879084e-38
0.35510254 -0.21491207 0.60986561 1.0879084e-38
0.36511818 -0.21512692 0.60999876 1.0879084e-38
0.37533444 -0.21483007 0.60999876 1.0879084e-38
0.38496757 -0.21515521 0.60999876 1.0879084e-38
0.39484382 -0.21492597 0.60999876 1.0879084e-38
0.40478361 -0.21517523 0.60999882 1.0879084e-38
0.414938 -0.21492279 0.60999882 1.0879084e-38
0.4253155 -0.21506986 0.60999894 1.0879084e-38
0.43503028 -0.21497044 0.60999912 1.0879084e-38
0.4448522 -0.21499321 0.60999918 1.0879084e-38
0.45499209 -0.21490178 0.60999924 1.0879084e-38
0.46527055 -0.21505316 0.6099993 1.0879084e-38
0.47466791 -0.21495405 0.60999948 1.0879084e-38
0.48462465 -0.21489024 0.60999936 1.0879084e-38
0.49537009 -0.21491507 0.60999966 1.0879084e-38
0.50540757 -0.2151625 0.60999984 1.0879084e-38
0.5146448 -0.21504287 0.60999984 1.0879084e-38
0.525231 -0.21507977 0.61000001 1.0879084e-38
0.53373247 -0.21496648 0.60999978 1.0879084e-38
0.71774989 -0.21293236 0.60869157 1.097128e-38
0.3299984 -0.20483463 0.60405141 0
0.33492628 -0.20492613 0.60999846 1.0879084e-38
0.34531152 -0.20514803 0.60999864 1.0879084e-38
0.35517883 -0.20486586 0.6099987 1.0879084e-38
0.36514723 -0.20507973 0.60999876 1.0879084e-38
0.37534106 -0.20492022 0.60992783 1.0879084e-38
0.38496757 -0.20502238 0.60999876 1.0879084e-38
0.39471564 -0.20501836 0.60999876 1.0879084e-38
0.40474579 -0.20510164 0.60999882 1.0879084e-38
0.41490439 -0.20504884 0.60999882 1.0879084e-38
0.42521548 -0.20493206 0.60999894 1.0879084e-38
0.43503094 -0.20512812 0.60999906 1.0879084e-38
0.44489178 -0.20482549 0.60996133 1.0879084e-38
0.45492437 -0.20500608 0.60999924 1.0879084e-38
0.46527138 -0.20494914 0.6099993 1.0879084e-38
0.47499645 -0.20493007 0.60999948 1.0879084e-38
0.48457965 -0.20487984 0.60999936 1.0879084e-38
0.49532112 -0.20508002 0.60999972 1.0879084e-38
0.5052349 -0.20503114 0.60999978 1.0879084e-38
0.5145846 -0.20499758 0.60999984 1.0879084e-38
0.52497351 -0.2050056 0.61000001 1.0879084e-38
0.53457499 -0.20470938 0.60999972 1.0879084e-38
0.80645686 -0.2019501 0.60336137 1.097128e-38
0.32999843 -0.19493213 0.60405177 0
0.33504164 -0.19491275 0.60999852 1.0879084e-38
0.34536684 -0.19508547 0.60999864 1.0879084e-38
0.35515061 -0.1949081 0.6099987 1.0879084e-38
0.36514714 -0.19513161 0.6099987 1.0879084e-38
0.37533453 -0.19494921 0.60999876 1.0879084e-38
0.38498598 -0.1950108 0.60999876 1.0879084e-38
0.39481339 -0.19512962 0.60984957 1.0879084e-38
0.40470779 -0.19502904 0.60999882 1.0879084e-38
0.41497219 -0.19506153 0.60999882 1.0879084e-38
0.42535719 -0.19505498 0.60999888 1.0879084e-38
0.43496737 -0.19515763 0.60999912 1.0879084e-38
0.44493556 -0.19488692 0.60999924 1.0879084e-38
0.45509872 -0.19499788 0.60999924 1.0879084e-38
0.46527061 -0.19484521 0.6099993 1.0879084e-38
0.47477704 -0.19489701 0.60999942 1.0879084e-38
0.48446178 -0.19499998 0.60999936 1.0879084e-38
0.49527633 -0.19498055 0.60999966 1.0879084e-38
0.5054819 -0.19480763 0.60997379 1.0879084e-38
0.51482642 -0.19495422 0.60999984 1.0879084e-38
0.52517921 -0.19492944 0.61000001 1.0879084e-38
0.53470129 -0.19497687 0.60999972 1.0879084e-38
0.69787955 -0.19600353 0.60498708 1.097128e-38
0.80958164 -0.19323081 0.60903424 1.097128e-38
0.32999837 -0.18502964 0.60405147 0
0.33501792 -0.18507075 0.60999852 1.0879084e-38
0.34531236 -0.18492807 0.60999864 1.0879084e-38
0.35515049 -0.1849526 0.6099987 1.0879084e-38
0.36514726 -0.18518348 0.6099987 1.0879084e-38
0.3753345 -0.18490614 0.60999876 1.0879084e-38
0.38496765 -0.18499783 0.60999876 1.0879084e-38
0.39477909 -0.18509215 0.60999876 1.0879084e-38
0.40476424 -0.1850826 0.60999882 1.0879084e-38
0.41490555 -0.18496443 0.60999882 1.0879084e-38
0.42531553 -0.18504463 0.60999888 1.0879084e-38
0.43511257 -0.18519369 0.609999 1.0879084e-38
0.44493505 -0.18495898 0.60999924 1.0879084e-38
0.45492437 -0.1849772 0.6099993 1.0879084e-38
0.46520507 -0.18486921 0.60999924 1.0879084e-38
0.47471929 -0.18502507 0.60999948 1.0879084e-38
0.48455626 -0.18499614 0.60999936 1.0879084e-38
0.49541938 -0.18488644 0.60999948 1.0879084e-38
0.5054673 -0.18493426 0.60999978 1.0879084e-38
0.51476562 -0.18490697 0.60999984 1.0879084e-38
0.52510214 -0.18498565 0.6099999 1.0879084e-38
0.53524083 -0.18477261 0.60999978 1.0879084e-38
0.54151046 -0.18085456 0.6099999 1.0879084e-38
0.7590729 -0.18305148 0.60719585 1.097128e-38
0.84195894 -0.18931703 0.60268694 1.097128e-38
0.3299984 -0.17512201 0.60420275 0
0.33501863 -0.17505537 0.60999846 1.0879084e-38
0.34536707 -0.17486444 0.60999864 1.0879084e-38
0.35515061 -0.17499706 0.6099987 1.0879084e-38
0.36508945 -0.17513165 0.6099987 1.0879084e-38
0.37533453 -0.17486307 0.60999876 1.0879084e-38
0.38494951 -0.17498532 0.60999876 1.0879084e-38
0.39481083 -0.17497341 0.60999876 1.0879084e-38
0.40482116 -0.17513458 0.60999882 1.0879084e-38
0.41486886 -0.17497656 0.60999882 1.0879084e-38
0.42521539 -0.17490944 0.60999888 1.0879084e-38
0.43494892 -0.17509516 0.60999888 1.0879084e-38
0.44493565 -0.17503096 0.60999924 1.0879084e-38
0.45507935 -0.17509414 0.60999924 1.0879084e-38
0.4653616 -0.17489822 0.6099993 1.0879084e-38
0.47499654 -0.17514937 0.60999942 1.0879084e-38
0.4846493 -0.17498998 0.60999936 1.0879084e-38
0.49537024 -0.17505184 0.60999966 1.0879084e-38
0.50540763 -0.17496528 0.60999978 1.0879084e-38
0.514705 -0.17486125 0.60999984 1.0879084e-38
0.52512753 -0.17504521 0.61000001 1.0879084e-38
0.53559846 -0.17481999 0.60995185 1.0602499e-38
0.54258037 -0.17424755 0.6099999 1.0879084e-38
0.60308349 -0.17532092 0.60979325 9.8649394e-39
0.6419158 -0.17873585 0.60061491 1.0879084e-38
0.32999837 -0.16499954 0.6038999 0
0.33500662 -0.1649619 0.60999852 1.0879084e-38
0.34533927 -0.16490026 0.6099987 1.0879084e-38
0.35512227 -0.1650407 0.6099987 1.0879084e-38
0.36514723 -0.16508478 0.6099987 1.0879084e-38
0.37527326 -0.1649207 0.60999876 1.0879084e-38
0.38496763 -0.16497356 0.60999876 1.0879084e-38
0.39477921 -0.16495629 0.60999882 1.0879084e-38
0.40478352 -0.16506165 0.60999882 1.0879084e-38
0.41503909 -0.16510166 0.60999882 1.0879084e-38
0.42529529 -0.16490313 0.60999888 1.0879084e-38
0.43503016 -0.16500247 0.60999894 1.0879084e-38
0.44487089 -0.16497535 0.60999918 1.0879084e-38
0.45494822 -0.16507706 0.60999924 1.0879084e-38
0.46518001 -0.16505075 0.6099993 1.0879084e-38
0.47467265 -0.16496772 0.60999948 1.0879084e-38
0.48446169 -0.16497986 0.60999936 1.0879084e-38
0.49535468 -0.16502881 0.60989594 1.0879084e-38
0.50534815 -0.16499773 0.60999978 1.0879084e-38
0.51470536 -0.16497763 0.60999978 1.0879084e-38
0.52507609 -0.16496748 0.60999995 1.0879084e-38
0.53567237 -0.16490242 0.60999984 1.0879084e-38
0.54386652 -0.16522786 0.60999984 1.0879084e-38
0.60927463 -0.16003363 0.60737342 1.0879084e-38
0.70001215 -0.16443384 0.60065401 1.0879084e-38
0.74583119 -0.16741312 0.60558128 1.0879084e-38
0.3299984 -0.15486164 0.60405165 0
0.33507672 -0.1549494 0.60999852 1.0879084e-38
0.34531161 -0.15493694 0.60999864 1.0879084e-38
0.35509399 -0.15498459 0.6099987 1.0879084e-38
0.36514717 -0.15513666 0.60999876 1.0879084e-38
0.37533453 -0.15498249 0.60999876 1.0879084e-38
0.38491288 -0.15496154 0.60999876 1.0879084e-38
0.39474747 -0.15494005 0.60999876 1.0879084e-38
0.40474561 -0.15498976 0.60999882 1.0879084e-38
0.4149383 -0.15500452 0.60999882 1.0879084e-38
0.42537633 -0.15489464 0.60999888 1.0879084e-38
0.435094 -0.1550338 0.609999 1.0879084e-38
0.44499975 -0.15504803 0.60999918 1.0879084e-38
0.45515758 -0.15504199 0.60994112 1.0879084e-38
0.46533769 -0.15507734 0.6099993 1.0879084e-38
0.4749454 -0.15493152 0.60999948 1.0879084e-38
0.48455626 -0.15497364 0.60999936 1.0879084e-38
0.49534622 -0.15498801 0.60999966 1.0879084e-38
0.50528896 -0.15503162 0.60999978 1.0879084e-38
0.51452971 -0.15493751 0.60999984 1.0879084e-38
0.5251019 -0.15502697 0.6099999 1.0879084e-38
0.53567231 -0.15501332 0.60999984 1.0879084e-38
0.54432863 -0.15526319 0.60999984 1.0879084e-38
0.63401371 -0.15011774 0.60263425 1.0879084e-38
0.86398435 -0.15342632 0.60156679 1.097128e-38
0.3299984 -0.14495914 0.60405135 0
0.3350178 -0.14502035 0.60999852 1.0786889e-38
0.3452839 -0.14497438 0.60999864 1.0879084e-38
0.35515064 -0.14503075 0.6099987 1.0879084e-38
0.36506084 -0.14508606 0.60999876 1.0879084e-38
0.3753345 -0.14493941 0.60999876 1.0879084e-38
0.38487628 -0.1450714 0.60999876 1.0879084e-38
0.39479178 -0.14488979 0.60985941 1.0879084e-38
0.40460935 -0.1450429 0.60999882 1.0879084e-38
0.41483742 -0.14491007 0.60999882 1.0879084e-38
0.42511016 -0.14501317 0.60999888 1.0879084e-38
0.43486682 -0.14506693 0.60999906 1.0879084e-38
0.44476867 -0.14499441 0.60999924 1.0879084e-38
0.45494819 -0.14504778 0.60999918 1.0879084e-38
0.46520433 -0.14497378 0.6099993 1.0879084e-38
0.4748866 -0.14505881 0.60999942 1.0879084e-38
0.48464936 -0.14496513 0.60999936 1.0879084e-38
0.4954192 -0.14502165 0.60999978 1.0879084e-38
0.5055269 -0.14505515 0.60999978 1.0879084e-38
0.5147053 -0.14488775 0.60999978 1.0879084e-38
0.52502465 -0.14508697 0.60999995 1.0879084e-38
0.53560972 -0.14496186 0.6099999 1.0879084e-38
0.54445702 -0.14523177 0.60999984 1.0879084e-38
0.60774535 -0.14638563 0.6018874 1.0879084e-38
0.7852425 -0.14199197 0.60564303 1.0879084e-38
0.32999837 -0.13505691 0.60420251 0
0.33493605 -0.13509257 0.60999852 1.0786889e-38
0.3452563 -0.13501257 0.60999864 1.0786889e-38
0.35506588 -0.13507506 0.6099987 1.0786889e-38
0.36514717 -0.13503821 0.6099987 1.0879084e-38
0.37524256 -0.13499872 0.60999876 1.0879084e-38
0.38502041 -0.13513401 0.60993153 1.0602497e-38
0.39477855 -0.13501468 0.60999876 1.0879084e-38
0.4047645 -0.13497074 0.60999882 1.0879084e-38
0.41493773 -0.13492489 0.60999882 1.0879084e-38
0.42539358 -0.13500234 0.60999888 1.0879084e-38
0.43519416 -0.13496843 0.609999 1.0879084e-38
0.4451274 -0.13493471 0.60999918 1.0879084e-38
0.45507935 -0.13503103 0.60999924 1.0879084e-38
0.46527138 -0.1349991 0.6099993 1.0879084e-38
0.47466779 -0.13503872 0.60999948 1.0879084e-38
0.48446169 -0.13495976 0.60999936 1.0879084e-38
0.49534532 -0.13505626 0.60999954 1.0879084e-38
0.50546724 -0.13508716 0.60999978 1.0879084e-38
0.51470536 -0.13516615 0.60999978 1.0879084e-38
0.52497351 -0.13501218 0.60999995 1.0879084e-38
0.53567231 -0.13490601 0.60999984 1.0879084e-38
0.54445702 -0.1352725 0.60999984 1.0879084e-38
0.31854764 -0.12549105 0.60675967 0
0.3299984 -0.12492359 0.6038999 0
0.3350881 -0.12499683 0.60999846 1.0786889e-38
0.34542301 -0.12505005 0.60999864 1.0786889e-38
0.35523567 -0.12501924 0.6099987 1.0786889e-38
0.36514717 -0.12509009 0.6099987 1.0786889e-38
0.37533438 -0.12505908 0.60999876 1.0879084e-38
0.38496763 -0.12492607 0.60999876 1.0879084e-38
0.39477894 -0.12499908 0.60999876 1.0879084e-38
0.40491948 -0.1248944 0.60999882 1.0879084e-38
0.41503909 -0.12493695 0.60999882 1.0879084e-38
0.42535791 -0.12499338 0.60999888 1.0879084e-38
0.43496802 -0.12500365 0.60999912 1.0879084e-38
0.44474322 -0.12501454 0.60999918 1.0879084e-38
0.45484424 -0.12489311 0.60999924 1.0879084e-38
0.46533686 -0.12502287 0.6099993 1.0879084e-38
0.47499651 -0.12499243 0.60999948 1.0879084e-38
0.48443553 -0.1250862 0.60999936 1.0879084e-38
0.49515498 -0.1249631 0.60999948 1.0879084e-38
0.50534987 -0.12496311 0.60999978 1.0879084e-38
0.51482648 -0.12527567 0.60999984 1.0879084e-38
0.5251019 -0.12506995 0.6099999 1.0879084e-38
0.53554744 -0.12485901 0.6099999 1.0879084e-38
0.5444963 -0.12510195 0.60999984 1.0879084e-38
0.70254391 -0.12394026 0.60703468 1.0879084e-38
0.75870985 -0.12534758 0.6099332 1.0879084e-38
0.32999837 -0.11502139 0.60405123 0
0.3350656 -0.11498302 0.60999852 1.0786889e-38
0.34539506 -0.11508618 0.60999864 1.0786889e-38
0.35515061 -0.11506362 0.6099987 1.0786889e-38
0.36514717 -0.11514197 0.6099987 1.0786889e-38
0.37533453 -0.11501606 0.60999876 1.0786889e-38
0.38505858 -0.11491025 0.60999876 1.0786889e-38
0.39484248 -0.11487807 0.60999876 1.0879084e-38
0.40478349 -0.11494809 0.60999882 1.0879084e-38
0.41490486 -0.11495018 0.60999882 1.0879084e-38
0.42513475 -0.11511775 0.60999888 1.0879084e-38
0.43493065 -0.11491158 0.609999 1.0879084e-38
0.44510165 -0.11494906 0.60999918 1.0879084e-38
0.45519236 -0.11486778 0.60999924 1.0879084e-38
0.46522737 -0.1151291 0.60953939 1.0879084e-38
0.47467276 -0.11482456 0.60999942 1.0879084e-38
0.4847616 -0.11506884 0.60999936 1.0879084e-38
0.4954685 -0.1149893 0.60999972 1.0879084e-38
0.50528902 -0.11483831 0.60999978 1.0879084e-38
0.51476353 -0.11507004 0.60999984 1.0879084e-38
0.52523106 -0.11512456 0.60999995 1.0879084e-38
0.53567237 -0.11479918 0.60999984 1.0879084e-38
0.54445714 -0.11493867 0.60999984 1.0879084e-38
0.55082619 -0.11441894 0.60230327 1.0879084e-38
0.67272156 -0.1159154 0.60416764 1.0879084e-38
0.85027349 -0.11600865 0.60947323 1.0879084e-38
0.32999837 -0.10511892 0.60405165 0
0.33502969 -0.10505628 0.60999852 1.0786889e-38
0.34536651 -0.1050235 0.60999864 1.0786889e-38
0.35520726 -0.10510657 0.6099987 1.0786889e-38
0.36523381 -0.10509001 0.6099987 1.0786889e-38
0.37533459 -0.10497297 0.60999876 1.0786889e-38
0.38496757 -0.10490084 0.60999876 1.0786889e-38
0.39481172 -0.10496639 0.60999876 1.0786889e-38
0.40468717 -0.1050035 0.60999882 1.0879084e-38
0.41476992 -0.10496708 0.60999882 1.0879084e-38
0.42539358 -0.10497499 0.60999888 1.0879084e-38
0.43520305 -0.10493212 0.60999888 1.0879084e-38
0.44476023 -0.10503401 0.60999918 1.0879084e-38
0.45484409 -0.10486566 0.60999918 1.0879084e-38
0.46546999 -0.10506773 0.6099993 1.0879084e-38
0.47483209 -0.10494202 0.60999948 1.0879084e-38
0.48435014 -0.10481304 0.60999936 1.0879084e-38
0.49544084 -0.10502292 0.60999954 1.0879084e-38
0.50540787 -0.10502343 0.60999972 1.0879084e-38
0.5146448 -0.10487 0.60999984 1.0879084e-38
0.52517921 -0.10504769 0.61000001 1.0879084e-38
0.53567231 -0.10491011 0.60999984 1.0879084e-38
0.54445702 -0.1049794 0.60999984 1.0879084e-38
0.75722611 -0.10560518 0.60359579 1.0879084e-38
0.31239483 -0.095241398 0.60646987 7.8366285e-39
0.3299984 -0.094991826 0.60420257 0
0.33485705 -0.094960481 0.60999846 1.0786889e-38
0.34535095 -0.094966263 0.60996753 1.0786889e-38
0.35517883 -0.095050439 0.6099987 1.0786889e-38
0.36514729 -0.095041871 0.6099987 1.0786889e-38
0.37533456 -0.094929881 0.60999876 1.0786889e-38
0.38502234 -0.094885424 0.60999876 1.0786889e-38
0.39474735 -0.09505678 0.60999876 1.0786889e-38
0.40476531 -0.095091447 0.6098668 1.0786889e-38
0.41510591 -0.094971411 0.60999882 1.0786889e-38
0.42535791 -0.09496697 0.60999882 1.0879084e-38
0.43486691 -0.095105603 0.60999894 1.0879084e-38
0.44503659 -0.094966516 0.60999918 1.0879084e-38
0.45512843 -0.094966203 0.60999924 1.0879084e-38
0.4650721 -0.094981961 0.6099993 1.0879084e-38
0.47499141 -0.095055431 0.60999942 1.0879084e-38
0.48455587 -0.094929703 0.60999942 1.0879084e-38
0.49525005 -0.094932981 0.60999972 1.0879084e-38
0.50552702 -0.095205598 0.60999978 1.0879084e-38
0.51458466 -0.094830215 0.60999984 1.0879084e-38
0.52512759 -0.094972111 0.60999995 1.0879084e-38
0.53567237 -0.095021017 0.60999984 1.0879084e-38
0.54445702 -0.095020123 0.60999978 1.0879084e-38
0.57637864 -0.091646098 0.60911638 1.0879084e-38
0.3299984 -0.085084997 0.60405129 0
0.33502987 -0.085032523 0.60999858 1.0786889e-38
0.34520349 -0.084905647 0.60999864 1.0786889e-38
0.35515046 -0.084995128 0.6099987 1.0786889e-38
0.36514714 -0.085093744 0.6099987 1.0786889e-38
0.37533453 -0.084886864 0.60999876 1.0786889e-38
0.38498604 -0.084995307 0.60999876 1.0786889e-38
0.39461684 -0.085151821 0.60999876 1.0786889e-38
0.40476459 -0.084857985 0.60999882 1.0786889e-38
0.41497216 -0.084987007 0.60999882 1.0786889e-38
0.42509893 -0.085131817 0.60976738 1.0786889e-38
0.43519419 -0.084992729 0.60999906 1.0879084e-38
0.44482303 -0.085050337 0.60999924 1.0879084e-38
0.45491028 -0.084962942 0.60999924 1.0879084e-38
0.46545279 -0.084987007 0.6099993 1.0879084e-38
0.47467887 -0.08487156 0.60988647 1.0879084e-38
0.48474368 -0.085173965 0.60999936 1.0879084e-38
0.49522352 -0.084970564 0.60999948 1.0879084e-38
