# .PCD v0.7 - Point Cloud Data file format
VERSION 0.7
FIELDS x y z rgb
SIZE 4 4 4 4
TYPE F F F F
COUNT 1 1 1 1
WIDTH 1019
HEIGHT 1
VIEWPOINT 0 0 0 1 0 0 0
POINTS 1019
DATA ascii
0.84123594 0.057550758 0.61000192 1.0786889e-38
0.84759176 0.057078592 0.61000198 1.0786889e-38
0.85216224 0.057182033 0.61000204 1.0786889e-38
0.85676283 0.057286154 0.61000204 1.0786889e-38
0.86293745 0.057425898 0.6100021 1.0786889e-38
0.86759907 0.057531402 0.61000216 1.0786889e-38
0.60842162 0.060232233 0.61191887 1.0786889e-38
0.62804008 0.061555933 0.61000055 1.0786889e-38
0.63290787 0.061996773 0.61000055 1.0786889e-38
0.63743401 0.062132359 0.61000055 1.0786889e-38
0.64199108 0.062268864 0.61000061 1.0786889e-38
0.64657921 0.062406298 0.61000061 1.0786889e-38
0.6523602 0.06257946 0.61000067 1.0786889e-38
0.65818763 0.062754013 0.61000067 1.0786889e-38
0.66288716 0.062894791 0.61000067 1.0786889e-38
0.66761929 0.063036539 0.61000073 1.0786889e-38
0.67178667 0.063161373 0.61000073 1.0786889e-38
0.79263002 0.06329751 0.61000162 1.0786889e-38
0.79759473 0.062936135 0.61000162 1.0786889e-38
0.80330861 0.062089838 0.61000174 1.0786889e-38
0.8076213 0.062204666 0.61000174 1.0786889e-38
0.81196165 0.062320236 0.61000168 1.0786889e-38
0.81778586 0.062475309 0.6100018 1.0786889e-38
0.822182 0.062592365 0.61000186 1.0786889e-38
0.82660657 0.062710181 0.6100018 1.0786889e-38
0.83254409 0.062868267 0.61000186 1.0786889e-38
0.83702624 0.062987611 0.61000192 1.0786889e-38
0.84183896 0.06249854 0.61000192 1.0786889e-38
0.84759182 0.062237214 0.61000198 1.0786889e-38
0.85216218 0.062355865 0.61000204 1.0786889e-38
0.85676283 0.062475305 0.61000204 1.0786889e-38
0.86293745 0.062635593 0.6100021 1.0786889e-38
0.86759907 0.062756613 0.61000216 1.0786889e-38
0.63328379 0.066157356 0.61000055 1.0786889e-38
0.63743401 0.067483336 0.61000055 1.0786889e-38
0.64199108 0.06763804 0.61000061 1.0786889e-38
0.64657921 0.067793809 0.61000061 1.0786889e-38
0.6523602 0.067990057 0.61000067 1.0786889e-38
0.65795344 0.067817375 0.61000067 1.0786889e-38
0.66288716 0.067438655 0.61000073 1.0786889e-38
0.66761929 0.06759616 0.61000073 1.0786889e-38
0.6726234 0.067213178 0.61000073 1.0786889e-38
0.67694187 0.067355946 0.61000085 1.0786889e-38
0.68161041 0.068369262 0.61000085 1.0786889e-38
0.79192388 0.067754716 0.61000156 1.0786889e-38
0.79759467 0.067928351 0.61000168 1.0786889e-38
0.80330867 0.067101061 0.61000174 1.0786889e-38
0.8076213 0.067230247 0.61000174 1.0786889e-38
0.81196165 0.06736026 0.61000168 1.0786889e-38
0.81778592 0.067534722 0.6100018 1.0786889e-38
0.822182 0.067666411 0.61000186 1.0786889e-38
0.82660645 0.06779895 0.6100018 1.0786889e-38
0.83224612 0.067558795 0.61000192 1.0786889e-38
0.83702624 0.067086369 0.61000192 1.0786889e-38
0.84153748 0.067218505 0.61000192 1.0786889e-38
0.84759182 0.067395836 0.61000198 1.0786889e-38
0.85216224 0.067529693 0.61000204 1.0786889e-38
0.85676283 0.067664444 0.61000204 1.0786889e-38
0.86293745 0.067845285 0.61000216 1.0786889e-38
0.86759907 0.067981817 0.61000216 1.0786889e-38
0.46895102 0.072650492 0.61010772 8.2128548e-39
0.64237213 0.071828522 0.61000061 1.0786889e-38
0.64657927 0.072283387 0.61000055 1.0786889e-38
0.6523602 0.072498888 0.61000067 1.0786889e-38
0.65842181 0.072180994 0.61000067 1.0786889e-38
0.66288716 0.071982525 0.61000067 1.0786889e-38
0.66761929 0.072155781 0.61000073 1.0786889e-38
0.67238432 0.072330229 0.61000067 1.0786889e-38
0.67718261 0.072505899 0.61000085 1.0786889e-38
0.68201447 0.072682805 0.61000085 1.0786889e-38
0.68663615 0.073222227 0.61000091 1.0786889e-38
0.69178045 0.074896358 0.61000091 1.0786889e-38
0.78489417 0.074469373 0.61000156 1.0786889e-38
0.78769761 0.072584569 0.61000162 1.0786889e-38
0.79192382 0.072728045 0.61000156 1.0786889e-38
0.79759461 0.072920561 0.61000162 1.0786889e-38
0.80330861 0.0721123 0.61000168 1.0786889e-38
0.8076213 0.072255835 0.61000174 1.0786889e-38
0.81196165 0.072400302 0.61000168 1.0786889e-38
0.81778586 0.072594143 0.6100018 1.0786889e-38
0.822182 0.072740458 0.61000186 1.0786889e-38
0.82660651 0.072887719 0.6100018 1.0786889e-38
0.83284217 0.072481647 0.61000192 1.0786889e-38
0.8370263 0.072209828 0.61000192 1.0786889e-38
0.84153748 0.072356977 0.61000198 1.0786889e-38
0.84759188 0.072554447 0.61000198 1.0786889e-38
0.85216218 0.072703525 0.61000204 1.0786889e-38
0.85676283 0.07285358 0.61000204 1.0786889e-38
0.86293745 0.072013035 0.61000216 1.0786889e-38
0.86759907 0.072161987 0.61000216 1.0786889e-38
0.43338537 0.0757185 0.61093318 1.0786889e-38
0.64773017 0.075022347 0.61000055 1.0786889e-38
0.65269202 0.076506339 0.61000067 1.0786889e-38
0.65818763 0.077244341 0.61000067 1.0786889e-38
0.66288716 0.077435173 0.61000067 1.0786889e-38
0.66761929 0.077627316 0.61000073 1.0786889e-38
0.67238426 0.0778208 0.61000067 1.0786889e-38
0.6771825 0.078015633 0.61000085 1.0786889e-38
0.68201447 0.077290326 0.61000085 1.0786889e-38
0.68688035 0.077484667 0.61000091 1.0786889e-38
0.69178045 0.077680379 0.61000091 1.0786889e-38
0.69671541 0.077877477 0.61000091 1.0786889e-38
0.70168531 0.078075975 0.61000097 1.0786889e-38
0.70669067 0.078275882 0.61000103 1.0786889e-38
0.71173191 0.078477226 0.61000103 1.0786889e-38
0.71680927 0.078680024 0.61000109 1.0786889e-38
0.72192323 0.078884266 0.61000109 1.0786889e-38
0.7266435 0.078755341 0.61000115 1.0786889e-38
0.73226261 0.078342259 0.61000121 1.0786889e-38
0.73748875 0.078547508 0.61000121 1.0786889e-38
0.74275315 0.078754269 0.61000127 1.0786889e-38
0.74805617 0.078962535 0.61000133 1.0786889e-38
0.7533983 0.079172343 0.61000133 1.0786889e-38
0.75742948 0.07933066 0.61000139 1.0786889e-38
0.76148558 0.079489961 0.61000139 1.0786889e-38
0.76692724 0.079703674 0.61000144 1.0786889e-38
0.7724095 0.079918981 0.6100015 1.0786889e-38
0.77931887 0.07821779 0.6100015 1.0786889e-38
0.78349769 0.077387288 0.61000156 1.0786889e-38
0.78769761 0.07754384 0.61000162 1.0786889e-38
0.79192388 0.07770139 0.61000156 1.0786889e-38
0.79759467 0.077912778 0.61000162 1.0786889e-38
0.80330867 0.07712353 0.61000162 1.0786889e-38
0.8076213 0.077281423 0.61000174 1.0786889e-38
0.81196165 0.077440329 0.61000168 1.0786889e-38
0.81778592 0.077653557 0.61000174 1.0786889e-38
0.822182 0.077814505 0.61000186 1.0786889e-38
0.82631075 0.077558175 0.6100018 1.0786889e-38
0.83254409 0.077172168 0.61000192 1.0786889e-38
0.83702624 0.077333286 0.61000192 1.0786889e-38
0.84153748 0.077495441 0.61000192 1.0786889e-38
0.84759176 0.077713065 0.61000198 1.0786889e-38
0.85216224 0.077877358 0.61000204 1.0786889e-38
0.85676283 0.078042731 0.61000204 1.0786889e-38
0.86293745 0.077222735 0.6100021 1.0786889e-38
0.86759907 0.077387199 0.61000216 1.0786889e-38
0.65857792 0.081488095 0.61000067 1.0786889e-38
0.66312295 0.082535133 0.61000073 1.0786889e-38
0.66761929 0.083098866 0.61000073 1.0786889e-38
0.67238432 0.082396284 0.61000073 1.0786889e-38
0.67718261 0.082607076 0.61000085 1.0786889e-38
0.68201447 0.081897862 0.61000079 1.0786889e-38
0.68688035 0.082108393 0.61000091 1.0786889e-38
0.69178039 0.082320414 0.61000091 1.0786889e-38
0.69671541 0.082533941 0.61000091 1.0786889e-38
0.70168537 0.082748979 0.61000103 1.0786889e-38
0.70669061 0.082965545 0.61000103 1.0786889e-38
0.71173191 0.082242385 0.61000103 1.0786889e-38
0.71680927 0.082458682 0.61000109 1.0786889e-38
0.72192329 0.082676552 0.61000109 1.0786889e-38
0.72733271 0.082335591 0.61000115 1.0786889e-38
0.73226261 0.082162082 0.61000115 1.0786889e-38
0.73748875 0.082381248 0.61000127 1.0786889e-38
0.74275309 0.082602017 0.61000127 1.0786889e-38
0.74805617 0.082824409 0.61000127 1.0786889e-38
0.7531302 0.082649224 0.61000133 1.0786889e-38
0.75742948 0.082245782 0.61000139 1.0786889e-38
0.76148564 0.082413182 0.61000139 1.0786889e-38
0.76692724 0.082637765 0.61000144 1.0786889e-38
0.7724095 0.082864016 0.6100015 1.0786889e-38
0.77793288 0.08210662 0.6100015 1.0786889e-38
0.78349763 0.082332574 0.61000156 1.0786889e-38
0.78769761 0.082503118 0.61000162 1.0786889e-38
0.79192382 0.082674719 0.61000156 1.0786889e-38
0.79759473 0.082904994 0.61000162 1.0786889e-38
0.80330861 0.082134753 0.61000168 1.0786889e-38
0.8076213 0.082307003 0.61000174 1.0786889e-38
0.81196165 0.082480356 0.61000168 1.0786889e-38
0.81778586 0.082712971 0.6100018 1.0786889e-38
0.822182 0.082888559 0.61000186 1.0786889e-38
0.82690221 0.082465842 0.6100018 1.0786889e-38
0.83254415 0.082280703 0.61000186 1.0786889e-38
0.8370263 0.082456738 0.61000192 1.0786889e-38
0.84153748 0.082633913 0.61000198 1.0786889e-38
0.8475917 0.082871683 0.61000198 1.0786889e-38
0.85216224 0.082016423 0.61000204 1.0786889e-38
0.85676283 0.082194038 0.61000204 1.0786889e-38
0.86293745 0.082432427 0.6100021 1.0786889e-38
0.86759907 0.082612403 0.61000216 1.0786889e-38
0.66761929 0.086746551 0.61000073 1.0786889e-38
0.67238432 0.08697176 0.61000067 1.0786889e-38
0.67718261 0.087198533 0.61000085 1.0786889e-38
0.68201447 0.087426893 0.61000085 1.0786889e-38
0.68688035 0.087656863 0.61000091 1.0786889e-38
0.69178039 0.087888449 0.61000091 1.0786889e-38
0.69646776 0.087737136 0.61000097 1.0786889e-38
0.70168531 0.087421983 0.61000097 1.0786889e-38
0.70669067 0.087655202 0.61000103 1.0786889e-38
0.71173191 0.086948819 0.61000103 1.0786889e-38
0.71680927 0.087182023 0.61000109 1.0786889e-38
0.72192329 0.08741691 0.61000109 1.0786889e-38
0.72707433 0.08765351 0.61000115 1.0786889e-38
0.73226261 0.08789181 0.61000115 1.0786889e-38
0.73722649 0.087736078 0.61000121 1.0786889e-38
0.74275315 0.087411702 0.61000127 1.0786889e-38
0.74805617 0.087651737 0.61000133 1.0786889e-38
0.7536664 0.08732374 0.61000133 1.0786889e-38
0.75742942 0.087104321 0.61000139 1.0786889e-38
0.76148564 0.087285213 0.61000139 1.0786889e-38
0.76692724 0.087527908 0.61000139 1.0786889e-38
0.7724095 0.087772407 0.61000156 1.0786889e-38
0.77765572 0.087611869 0.6100015 1.0786889e-38
0.78349775 0.087277882 0.61000156 1.0786889e-38
0.78769761 0.087462395 0.61000162 1.0786889e-38
0.79192388 0.087648071 0.61000156 1.0786889e-38
0.79759467 0.087897204 0.61000168 1.0786889e-38
0.80330855 0.087145992 0.61000174 1.0786889e-38
0.8076213 0.087332599 0.61000174 1.0786889e-38
0.81196165 0.087520398 0.61000162 1.0786889e-38
0.81778592 0.087772392 0.6100018 1.0786889e-38
0.822182 0.087962605 0.61000186 1.0786889e-38
0.82660657 0.087136291 0.6100018 1.0786889e-38
0.83254415 0.087389246 0.61000192 1.0786889e-38
0.83702624 0.087580189 0.61000192 1.0786889e-38
0.84153748 0.087772377 0.61000192 1.0786889e-38
0.84759182 0.088030308 0.61000198 1.0786889e-38
0.85216218 0.087190248 0.61000204 1.0786889e-38
0.85676283 0.087383188 0.6100021 1.0786889e-38
0.86293745 0.087642126 0.6100021 1.0786889e-38
0.86759907 0.087837607 0.61000216 1.0786889e-38
0.67357969 0.09069182 0.61000073 1.0786889e-38
0.67718261 0.091789983 0.61000085 1.0786889e-38
0.68201447 0.092955925 0.61000079 1.0786889e-38
0.68663621 0.092822589 0.61000091 1.0786889e-38
0.69178045 0.092528492 0.61000091 1.0786889e-38
0.69696301 0.092231408 0.61000091 1.0786889e-38
0.70168537 0.09209498 0.61000103 1.0786889e-38
0.70669073 0.092344873 0.61000103 1.0786889e-38
0.71173191 0.092596553 0.61000103 1.0786889e-38
0.71680927 0.092850029 0.61000109 1.0786889e-38
0.72166663 0.092712954 0.61000109 1.0786889e-38
0.72707427 0.092411004 0.61000115 1.0786889e-38
0.73226261 0.092666566 0.61000121 1.0786889e-38
0.73775101 0.092361338 0.61000127 1.0786889e-38
0.74275309 0.092221387 0.61000127 1.0786889e-38
0.74805617 0.09247908 0.61000133 1.0786889e-38
0.75339824 0.092738666 0.61000133 1.0786889e-38
0.75742942 0.092934549 0.61000139 1.0786889e-38
0.76148558 0.092157252 0.61000139 1.0786889e-38
0.76692724 0.092418052 0.61000144 1.0786889e-38
0.7724095 0.092680797 0.6100015 1.0786889e-38
0.77821004 0.092367038 0.6100015 1.0786889e-38
0.78349775 0.092223175 0.61000156 1.0786889e-38
0.78769761 0.092421658 0.61000162 1.0786889e-38
0.79192394 0.092621408 0.61000156 1.0786889e-38
0.79759473 0.092889421 0.61000162 1.0786889e-38
0.80330861 0.092157222 0.61000168 1.0786889e-38
0.8076213 0.092358172 0.61000174 1.0786889e-38
0.81196171 0.092560425 0.61000174 1.0786889e-38
0.81778586 0.092831805 0.6100018 1.0786889e-38
0.822182 0.093036652 0.61000186 1.0786889e-38
0.82660657 0.092225067 0.6100018 1.0786889e-38
0.83254415 0.092497773 0.61000186 1.0786889e-38
0.8370263 0.09270364 0.61000192 1.0786889e-38
0.84123594 0.092485517 0.61000192 1.0786889e-38
0.84759182 0.0921572 0.61000198 1.0786889e-38
0.85216224 0.09236408 0.61000204 1.0786889e-38
0.85676283 0.092572324 0.61000204 1.0786889e-38
0.86293745 0.09285181 0.61000216 1.0786889e-38
0.86759907 0.093062818 0.61000216 1.0786889e-38
0.68322664 0.096707314 0.61000085 1.0786889e-38
0.68712443 0.097287044 0.61000091 1.0786889e-38
0.69178051 0.097168528 0.61000091 1.0786889e-38
0.69671541 0.097434603 0.61000091 1.0786889e-38
0.70168537 0.09770257 0.61000103 1.0786889e-38
0.70669061 0.097972453 0.61000103 1.0786889e-38
0.71173191 0.097302981 0.61000103 1.0786889e-38
0.71680927 0.09757337 0.61000109 1.0786889e-38
0.72217989 0.097290009 0.61000109 1.0786889e-38
0.72707421 0.097168498 0.61000115 1.0786889e-38
0.73226261 0.097441345 0.61000115 1.0786889e-38
0.73748875 0.097716175 0.61000127 1.0786889e-38
0.74275309 0.097993009 0.61000127 1.0786889e-38
0.74805617 0.097306408 0.61000133 1.0786889e-38
0.7533983 0.097583786 0.61000133 1.0786889e-38
0.75742948 0.097793087 0.61000139 1.0786889e-38
0.76148558 0.097029276 0.61000139 1.0786889e-38
0.76692724 0.097308196 0.61000139 1.0786889e-38
0.7724095 0.097589195 0.6100015 1.0786889e-38
0.77793288 0.097872294 0.6100015 1.0786889e-38
0.78349769 0.097168468 0.61000156 1.0786889e-38
0.78769761 0.097380936 0.61000162 1.0786889e-38
0.791924 0.097594753 0.61000156 1.0786889e-38
0.79759467 0.09788163 0.61000168 1.0786889e-38
0.80330855 0.097168453 0.61000174 1.0786889e-38
0.8076213 0.09738376 0.61000174 1.0786889e-38
0.81196165 0.09760046 0.61000168 1.0786889e-38
0.81778592 0.097891219 0.6100018 1.0786889e-38
0.822182 0.097095892 0.61000186 1.0786889e-38
0.82660651 0.097313836 0.6100018 1.0786889e-38
0.83254409 0.097606316 0.61000186 1.0786889e-38
0.83702624 0.097827092 0.61000192 1.0786889e-38
0.84183902 0.097446948 0.61000192 1.0786889e-38
0.84759182 0.097315826 0.61000198 1.0786889e-38
0.85216218 0.097537912 0.61000204 1.0786889e-38
0.85676283 0.097761475 0.61000204 1.0786889e-38
0.86293745 0.097019561 0.61000216 1.0786889e-38
0.86759907 0.097242981 0.61000216 1.0786889e-38
0.69219023 0.10152295 0.61000091 1.0786889e-38
0.69671541 0.10302236 0.61000103 1.0786889e-38
0.70168531 0.10237557 0.61000097 1.0786889e-38
0.70669067 0.10266211 0.61000103 1.0786889e-38
0.71173191 0.10200942 0.61000103 1.0786889e-38
0.71680933 0.10229669 0.61000109 1.0786889e-38
0.72192329 0.10258605 0.61000109 1.0786889e-38
0.72707421 0.1028775 0.61000115 1.0786889e-38
0.73226261 0.10221611 0.61000121 1.0786889e-38
0.73748875 0.10250833 0.61000121 1.0786889e-38
0.74275315 0.10280269 0.61000127 1.0786889e-38
0.74805617 0.10213375 0.61000133 1.0786889e-38
0.75339824 0.10242889 0.61000133 1.0786889e-38
0.75742942 0.10265162 0.61000139 1.0786889e-38
0.76148558 0.10287573 0.61000139 1.0786889e-38
0.7669273 0.10219834 0.61000139 1.0786889e-38
0.7724095 0.10249758 0.6100015 1.0786889e-38
0.77793288 0.10279907 0.6100015 1.0786889e-38
0.78349763 0.10211375 0.61000156 1.0786889e-38
0.78769761 0.10234021 0.61000162 1.0786889e-38
0.79192394 0.10256808 0.61000162 1.0786889e-38
0.79759473 0.10287384 0.61000162 1.0786889e-38
0.80330861 0.10217968 0.61000174 1.0786889e-38
0.8076213 0.10240935 0.61000174 1.0786889e-38
0.81196165 0.10264048 0.61000168 1.0786889e-38
0.81778586 0.10295064 0.6100018 1.0786889e-38
0.822182 0.10216993 0.61000186 1.0786889e-38
0.82660657 0.10240261 0.6100018 1.0786889e-38
0.83254415 0.10271484 0.61000186 1.0786889e-38
0.8370263 0.10295055 0.61000192 1.0786889e-38
0.84153748 0.10216009 0.61000192 1.0786889e-38
0.84759182 0.10247444 0.61000198 1.0786889e-38
0.85216224 0.10271174 0.61000204 1.0786889e-38
0.85676283 0.10295061 0.61000204 1.0786889e-38
0.86293745 0.10222926 0.6100021 1.0786889e-38
0.86759907 0.10246819 0.61000216 1.0786889e-38
0.69795352 0.10682252 0.61000091 1.0786889e-38
0.7019347 0.10669018 0.61000097 1.0786889e-38
0.70669061 0.10735177 0.61000103 1.0786889e-38
0.71173191 0.10765714 0.61000103 1.0786889e-38
0.71680927 0.1079647 0.61000109 1.0786889e-38
0.72192323 0.10732642 0.61000109 1.0786889e-38
0.72707427 0.10763501 0.61000115 1.0786889e-38
0.73247081 0.10691358 0.61045641 1.0786889e-38
0.73748875 0.1073005 0.61000127 1.0786889e-38
0.74275309 0.10761238 0.61000127 1.0786889e-38
0.74805617 0.10792655 0.61000133 1.0786889e-38
0.7533983 0.10727401 0.61000133 1.0786889e-38
0.75742948 0.10751015 0.61000139 1.0786889e-38
0.76148564 0.10774776 0.61000139 1.0786889e-38
0.76692724 0.10708848 0.61000139 1.0786889e-38
0.7724095 0.10740596 0.6100015 1.0786889e-38
0.77793288 0.10772584 0.6100015 1.0786889e-38
0.78321838 0.10763595 0.61000156 1.0786889e-38
0.78769761 0.10729948 0.61000162 1.0786889e-38
0.79192394 0.10754143 0.61000156 1.0786889e-38
0.79759467 0.10786606 0.61000168 1.0786889e-38
0.80330867 0.10719091 0.61000162 1.0786889e-38
0.8076213 0.10743493 0.61000174 1.0786889e-38
0.81196165 0.10768052 0.61000162 1.0786889e-38
0.81749356 0.10758837 0.61000174 1.0786889e-38
0.822182 0.10724398 0.61000186 1.0786889e-38
0.82660657 0.10749138 0.6100018 1.0786889e-38
0.83254409 0.10782338 0.61000192 1.0786889e-38
0.83702624 0.108074 0.61000192 1.0786889e-38
0.84153748 0.10729856 0.61000198 1.0786889e-38
0.84759188 0.10763305 0.61000198 1.0786889e-38
0.85216218 0.10788557 0.61000204 1.0786889e-38
0.85676289 0.10710192 0.61000204 1.0786889e-38
0.86293745 0.10743894 0.61000216 1.0786889e-38
0.86759907 0.1076934 0.61000216 1.0786889e-38
0.70710927 0.11175581 0.61000103 1.0786889e-38
0.71173191 0.11236358 0.61000103 1.0786889e-38
0.71680927 0.11268803 0.61000109 1.0786889e-38
0.72192329 0.11206677 0.61000109 1.0786889e-38
0.72707421 0.11239251 0.61000115 1.0786889e-38
0.73226261 0.1127206 0.61000115 1.0786889e-38
0.73722649 0.11265077 0.61000121 1.0786889e-38
0.74275315 0.11242206 0.61000127 1.0786889e-38
0.74805617 0.11275388 0.61000133 1.0786889e-38
0.75339836 0.11211912 0.61000133 1.0786889e-38
0.75742942 0.11236868 0.61000139 1.0786889e-38
0.76148558 0.11261978 0.61000139 1.0786889e-38
0.76692724 0.11295665 0.61000139 1.0786889e-38
0.7724095 0.11231436 0.6100015 1.0786889e-38
0.77793288 0.11265261 0.6100015 1.0786889e-38
0.78377706 0.11241652 0.61000156 1.0786889e-38
0.78769761 0.11225875 0.61000162 1.0786889e-38
0.791924 0.11251476 0.61000156 1.0786889e-38
0.79759461 0.11285827 0.61000162 1.0786889e-38
0.80330861 0.11220215 0.61000168 1.0786889e-38
0.8076213 0.11246052 0.61000174 1.0786889e-38
0.81196171 0.11272055 0.61000174 1.0786889e-38
0.81807822 0.11247927 0.6100018 1.0786889e-38
0.822182 0.11231803 0.61000186 1.0786889e-38
0.82660657 0.11258016 0.6100018 1.0786889e-38
0.83224612 0.11250518 0.61000192 1.0786889e-38
0.83702624 0.11217277 0.61000192 1.0786889e-38
0.84153748 0.11243702 0.61000192 1.0786889e-38
0.84759182 0.11279167 0.61000198 1.0786889e-38
0.85216224 0.1130594 0.61000204 1.0786889e-38
0.85676289 0.11229107 0.61000204 1.0786889e-38
0.86293745 0.11264864 0.6100021 1.0786889e-38
0.86759907 0.11187357 0.61000216 1.0786889e-38
0.55336589 0.118125 0.61000001 1.0786889e-38
0.55603194 0.11888722 0.61000001 1.0786889e-38
0.71173191 0.11518744 0.61000103 1.0786889e-38
0.71680927 0.11552204 0.61000109 1.0786889e-38
0.72192323 0.11680713 0.61000109 1.0786889e-38
0.72707427 0.11715 0.61000115 1.0786889e-38
0.73226261 0.11749537 0.61000121 1.0786889e-38
0.73775101 0.11728513 0.61000121 1.0786889e-38
0.74275309 0.11723173 0.61000127 1.0786889e-38
0.74805617 0.11758121 0.61000127 1.0786889e-38
0.75339824 0.11793327 0.61000133 1.0786889e-38
0.75742948 0.11722721 0.61000139 1.0786889e-38
0.76148558 0.11749182 0.61000139 1.0786889e-38
0.7669273 0.11784679 0.61000139 1.0786889e-38
0.7724095 0.11722275 0.6100015 1.0786889e-38
0.77793288 0.11757938 0.6100015 1.0786889e-38
0.78321844 0.11752467 0.61000156 1.0786889e-38
0.78769761 0.11721803 0.61000162 1.0786889e-38
0.791924 0.11748811 0.61000156 1.0786889e-38
0.79759467 0.11785048 0.61000168 1.0786889e-38
0.80330867 0.11721338 0.61000162 1.0786889e-38
0.8076213 0.1174861 0.61000174 1.0786889e-38
0.81196165 0.11776058 0.61000162 1.0786889e-38
0.81778586 0.117117 0.6100018 1.0786889e-38
0.822182 0.11739208 0.61000186 1.0786889e-38
0.82660651 0.11766893 0.6100018 1.0786889e-38
0.83284217 0.11744548 0.61000192 1.0786889e-38
0.8370263 0.11729622 0.61000192 1.0786889e-38
0.84153748 0.11757549 0.61000198 1.0786889e-38
0.84728795 0.11751839 0.61000198 1.0786889e-38
0.85216224 0.11719847 0.61000204 1.0786889e-38
0.85676289 0.11748021 0.61000204 1.0786889e-38
0.86293745 0.11785834 0.61000216 1.0786889e-38
0.86759907 0.11709877 0.61000216 1.0786889e-38
0.55336589 0.12314022 0.61000001 1.0786889e-38
0.55737025 0.12234381 0.61000007 1.0786889e-38
0.56220531 0.12250571 0.61000001 1.0786889e-38
0.56748825 0.12343244 0.61000007 1.0786889e-38
0.57226437 0.12409707 0.61000007 1.0786889e-38
0.57569826 0.12493897 0.61000013 1.0786889e-38
0.72836661 0.12009311 0.61000115 1.0786889e-38
0.73291349 0.12183859 0.61000121 1.0786889e-38
0.73748875 0.12263542 0.61000127 1.0786889e-38
0.74248898 0.12259977 0.61000127 1.0786889e-38
0.74805617 0.12240856 0.61000127 1.0786889e-38
0.7533983 0.12277839 0.61000133 1.0786889e-38
0.75742942 0.12208575 0.61000139 1.0786889e-38
0.76148558 0.12236384 0.61000139 1.0786889e-38
0.76692724 0.12273695 0.6100015 1.0786889e-38
0.77213436 0.12270091 0.61000144 1.0786889e-38
0.77793288 0.12250616 0.6100015 1.0786889e-38
0.78377706 0.12230897 0.61000156 1.0786889e-38
0.78769761 0.1221773 0.61000162 1.0786889e-38
0.791924 0.12246145 0.61000156 1.0786889e-38
0.79759461 0.1228427 0.61000162 1.0786889e-38
0.80330861 0.12222461 0.61000168 1.0786889e-38
0.8076213 0.12251168 0.61000174 1.0786889e-38
0.81196165 0.12280061 0.61000168 1.0786889e-38
0.81778592 0.12217641 0.6100018 1.0786889e-38
0.822182 0.12246612 0.61000186 1.0786889e-38
0.82660657 0.1227577 0.6100018 1.0786889e-38
0.83254409 0.12212728 0.61000186 1.0786889e-38
0.83702624 0.12241967 0.61000192 1.0786889e-38
0.84153748 0.12271396 0.61000192 1.0786889e-38
0.84789574 0.12250908 0.61000198 1.0786889e-38
0.85216218 0.1223723 0.61000204 1.0786889e-38
0.85676289 0.12266936 0.61000204 1.0786889e-38
0.86293745 0.12202609 0.6100021 1.0786889e-38
0.86759907 0.12232398 0.61000216 1.0786889e-38
0.34563825 0.12987322 0.61398298 7.7444329e-39
0.55336589 0.12815543 0.61000001 1.0786889e-38
0.55737025 0.12737502 0.61000007 1.0786889e-38
0.56240767 0.12723605 0.61000007 1.0786889e-38
0.56748825 0.12765878 0.61000007 1.0786889e-38
0.5726071 0.1280847 0.61000007 1.0786889e-38
0.57802916 0.12704396 0.61000013 1.0786889e-38
0.58276337 0.12756142 0.61000019 1.0786889e-38
0.58716589 0.12843774 0.61000019 1.0786889e-38
0.59244776 0.12887372 0.61000019 1.0786889e-38
0.59670103 0.12836006 0.61000025 1.0786889e-38
0.60746527 0.12880546 0.61000037 1.0786889e-38
0.61291271 0.12968743 0.61000037 1.0786889e-38
0.73748875 0.12742758 0.61000121 1.0786889e-38
0.74301732 0.12725469 0.61000127 1.0786889e-38
0.74805623 0.1272359 0.61000127 1.0786889e-38
0.75339824 0.1276235 0.61000133 1.0786889e-38
0.75742942 0.12791598 0.61000139 1.0786889e-38
0.76148558 0.12723587 0.61000139 1.0786889e-38
0.7669273 0.12762707 0.61000139 1.0786889e-38
0.77268463 0.12745142 0.61000156 1.0786889e-38
0.77793288 0.12743293 0.6100015 1.0786889e-38
0.78349763 0.1278293 0.61000156 1.0786889e-38
0.78769761 0.12713659 0.61000162 1.0786889e-38
0.791924 0.12743479 0.61000156 1.0786889e-38
0.79759467 0.12783492 0.61000162 1.0786889e-38
0.80330855 0.12723584 0.61000174 1.0786889e-38
0.8076213 0.12753727 0.61000174 1.0786889e-38
0.81196171 0.12784064 0.61000174 1.0786889e-38
0.81778586 0.12723583 0.6100018 1.0786889e-38
0.822182 0.12754017 0.61000186 1.0786889e-38
0.82660651 0.12784648 0.6100018 1.0786889e-38
0.83254415 0.12723581 0.61000186 1.0786889e-38
0.8370263 0.12754312 0.61000192 1.0786889e-38
0.84123594 0.12742028 0.61000192 1.0786889e-38
0.84759176 0.1272358 0.61000198 1.0786889e-38
0.85216224 0.12754613 0.61000204 1.0786889e-38
0.85676289 0.12785849 0.61000204 1.0786889e-38
0.86293745 0.12723579 0.6100021 1.0786889e-38
0.86759907 0.12754919 0.61000216 1.0786889e-38
0.54245734 0.13077214 0.61106306 1.0786889e-38
0.55336589 0.13317065 0.61000001 1.0786889e-38
0.55762106 0.13207927 0.61000007 1.0786889e-38
0.56240767 0.13228738 0.61000007 1.0786889e-38
0.56748819 0.13273041 0.61000007 1.0786889e-38
0.5726071 0.13317679 0.61000007 1.0786889e-38
0.57777017 0.13192278 0.61000013 1.0786889e-38
0.58297235 0.13236949 0.61000019 1.0786889e-38
0.58716589 0.13272958 0.61000019 1.0786889e-38
0.59218252 0.13294454 0.61000019 1.0786889e-38
0.59777021 0.13190933 0.61000019 1.0786889e-38
0.60206097 0.13227206 0.61000025 1.0786889e-38
0.6074658 0.13272899 0.61000037 1.0786889e-38
0.61269391 0.13282046 0.61000037 1.0786889e-38
0.61620265 0.13171217 0.61000037 1.0786889e-38
0.73880005 0.13232012 0.61000127 1.0786889e-38
0.74275309 0.13262273 0.61000127 1.0786889e-38
0.74779004 0.13262178 0.61000127 1.0786889e-38
0.7533983 0.13246861 0.61000133 1.0786889e-38
0.75742948 0.1327745 0.61000139 1.0786889e-38
0.76148558 0.1321079 0.61000139 1.0786889e-38
0.76692724 0.13251723 0.6100015 1.0786889e-38
0.7724095 0.13292958 0.6100015 1.0786889e-38
0.77793288 0.13235971 0.6100015 1.0786889e-38
0.78349775 0.13277459 0.61000156 1.0786889e-38
0.78769761 0.13209584 0.61000162 1.0786889e-38
0.791924 0.13240813 0.61000156 1.0786889e-38
0.79759461 0.13282712 0.61000162 1.0786889e-38
0.80330861 0.13224706 0.61000168 1.0786889e-38
0.8076213 0.13256285 0.61000174 1.0786889e-38
0.81196165 0.13288067 0.61000168 1.0786889e-38
0.81778592 0.13229524 0.6100018 1.0786889e-38
0.822182 0.13261423 0.61000186 1.0786889e-38
0.82631081 0.1325063 0.6100018 1.0786889e-38
0.83254409 0.13234434 0.61000186 1.0786889e-38
0.83702624 0.13266659 0.61000192 1.0786889e-38
0.84183902 0.13239536 0.61000192 1.0786889e-38
0.84759188 0.13239442 0.61000198 1.0786889e-38
0.85216218 0.13271996 0.61000204 1.0786889e-38
0.85676289 0.1320098 0.61000204 1.0786889e-38
0.86293745 0.13244548 0.6100021 1.0786889e-38
0.86759907 0.1327744 0.61000216 1.0786889e-38
0.55336589 0.13818587 0.61000001 1.0786889e-38
0.55737025 0.13687931 0.61000007 1.0786889e-38
0.56240767 0.1373387 0.61000007 1.0786889e-38
0.56748819 0.13780202 0.61000007 1.0786889e-38
0.57240146 0.13791034 0.61000007 1.0786889e-38
0.57777023 0.13703546 0.61000013 1.0786889e-38
0.58297235 0.13750295 0.61000019 1.0786889e-38
0.58716589 0.1378798 0.61000019 1.0786889e-38
0.59244806 0.13749152 0.61000019 1.0786889e-38
0.59777021 0.13710189 0.61000019 1.0786889e-38
0.60206097 0.13748175 0.61000031 1.0786889e-38
0.6074658 0.13796026 0.61000037 1.0786889e-38
0.61313158 0.13706048 0.61000037 1.0786889e-38
0.74319345 0.13714723 0.61000127 1.0786889e-38
0.74832231 0.13729747 0.61000127 1.0786889e-38
0.75339824 0.13731372 0.61000133 1.0786889e-38
0.75742942 0.13763306 0.61000139 1.0786889e-38
0.76121449 0.13754274 0.61000139 1.0786889e-38
0.7669273 0.13740736 0.61000139 1.0786889e-38
0.7724095 0.13783798 0.61000144 1.0786889e-38
0.77793288 0.13728648 0.6100015 1.0786889e-38
0.78349775 0.13771988 0.61000156 1.0786889e-38
0.78769761 0.13705513 0.61000162 1.0786889e-38
0.791924 0.13738146 0.61000156 1.0786889e-38
0.79759467 0.13781935 0.61000168 1.0786889e-38
0.80330867 0.13725831 0.61000174 1.0786889e-38
0.8076213 0.13758844 0.61000174 1.0786889e-38
0.81167156 0.13749489 0.61000168 1.0786889e-38
0.81778586 0.13735467 0.6100018 1.0786889e-38
0.822182 0.13768826 0.61000186 1.0786889e-38
0.82690227 0.13743523 0.6100018 1.0786889e-38
0.83254415 0.13745289 0.61000198 1.0786889e-38
0.8370263 0.13779002 0.61000192 1.0786889e-38
0.84153748 0.13710167 0.61000192 1.0786889e-38
0.84759176 0.13755304 0.61000198 1.0786889e-38
0.85216224 0.1378938 0.61000204 1.0786889e-38
0.85676283 0.13719894 0.61000204 1.0786889e-38
0.86293745 0.13765518 0.6100021 1.0786889e-38
0.86759907 0.13695458 0.61000216 1.0786889e-38
0.44078368 0.14185077 0.61458659 1.0786889e-38
0.55336589 0.14320108 0.61000001 1.0786889e-38
0.55737025 0.14191052 0.61000007 1.0786889e-38
0.56240767 0.14239003 0.61000007 1.0786889e-38
0.56748825 0.14287364 0.61000007 1.0786889e-38
0.5726071 0.14251155 0.61000007 1.0786889e-38
0.57777011 0.14214815 0.61000013 1.0786889e-38
0.58297235 0.1426364 0.61000019 1.0786889e-38
0.58716589 0.14303 0.61000019 1.0786889e-38
0.5927127 0.14204162 0.61000019 1.0786889e-38
0.59777021 0.14229445 0.61000019 1.0786889e-38
0.60206097 0.14269145 0.61000031 1.0786889e-38
0.60719436 0.14294811 0.61000037 1.0786889e-38
0.61291271 0.14194451 0.61000037 1.0786889e-38
0.74407405 0.14138919 0.61000127 1.0786889e-38
0.74805617 0.14268336 0.61000127 1.0786889e-38
0.75278354 0.14278917 0.61065376 1.0786889e-38
0.75742948 0.14249158 0.61000139 1.0786889e-38
0.76175666 0.14226356 0.61000139 1.0786889e-38
0.76692724 0.14229752 0.61000139 1.0786889e-38
0.7724095 0.14274637 0.6100015 1.0786889e-38
0.77793288 0.14221326 0.6100015 1.0786889e-38
0.78349769 0.14266518 0.61000156 1.0786889e-38
0.78769761 0.14201438 0.61000162 1.0786889e-38
0.79192394 0.14235482 0.61000162 1.0786889e-38
0.79759473 0.14281155 0.61000162 1.0786889e-38
0.80330861 0.14226954 0.61000168 1.0786889e-38
0.8076213 0.14261404 0.61000174 1.0786889e-38
0.81225175 0.14237852 0.61000168 1.0786889e-38
0.81778592 0.14241408 0.6100018 1.0786889e-38
0.822182 0.1427623 0.61000186 1.0786889e-38
0.82660651 0.14209504 0.6100018 1.0786889e-38
0.83254415 0.14256142 0.61000192 1.0786889e-38
0.83702624 0.14291349 0.61000192 1.0786889e-38
0.84153748 0.14224014 0.61000198 1.0786889e-38
0.8475917 0.14271165 0.61000198 1.0786889e-38
0.85216224 0.14203285 0.61000204 1.0786889e-38
0.85676283 0.14238811 0.61000204 1.0786889e-38
0.86293745 0.14286485 0.6100021 1.0786889e-38
0.86759907 0.14217977 0.61000216 1.0786889e-38
0.55336589 0.14821631 0.61000001 1.0786889e-38
0.55737025 0.14694172 0.61000007 1.0786889e-38
0.56240767 0.14744137 0.61000007 1.0786889e-38
0.56748819 0.14794526 0.61000007 1.0786889e-38
0.57281274 0.14711493 0.61000007 1.0786889e-38
0.57777017 0.14726084 0.61000013 1.0786889e-38
0.58297235 0.14776987 0.61000019 1.0786889e-38
0.58695555 0.147816 0.61000019 1.0786889e-38
0.59244776 0.1469733 0.61000019 1.0786889e-38
0.59777021 0.14748701 0.61000019 1.0786889e-38
0.60206097 0.14790116 0.61000031 1.0786889e-38
0.6074661 0.1475499 0.61000037 1.0786889e-38
0.61291271 0.14719756 0.61000037 1.0786889e-38
0.61620265 0.14926612 0.61000037 1.0786889e-38
0.74938679 0.14665949 0.61000127 1.0786889e-38
0.7536664 0.14741422 0.61000133 1.0786889e-38
0.75742942 0.1473501 0.61000139 1.0786889e-38
0.76148564 0.14769842 0.61000139 1.0786889e-38
0.76692724 0.14718767 0.61000144 1.0786889e-38
0.77240956 0.14765477 0.61000144 1.0786889e-38
0.77793288 0.14714003 0.6100015 1.0786889e-38
0.78349775 0.14761047 0.61000156 1.0786889e-38
0.78769761 0.14796551 0.61000162 1.0786889e-38
0.79192394 0.14732814 0.61000156 1.0786889e-38
0.79759467 0.14780375 0.61000168 1.0786889e-38
0.80330867 0.14728077 0.61000162 1.0786889e-38
0.8076213 0.1476396 0.61000174 1.0786889e-38
0.81167156 0.14757304 0.61000168 1.0786889e-38
0.81778586 0.14747348 0.6100018 1.0786889e-38
0.822182 0.14783636 0.61000186 1.0786889e-38
0.82660657 0.14718382 0.6100018 1.0786889e-38
0.83259255 0.14799072 0.61017799 1.0786889e-38
0.83702624 0.14701223 0.61000192 1.0786889e-38
0.84153748 0.14737861 0.61000192 1.0786889e-38
0.84759182 0.14787027 0.61000198 1.0786889e-38
0.85216218 0.14720668 0.61000204 1.0786889e-38
0.85676283 0.14757724 0.61000204 1.0786889e-38
0.86293745 0.14703262 0.61000216 1.0786889e-38
0.86759907 0.14740498 0.61000216 1.0786889e-38
0.55336589 0.15323152 0.61000001 1.0786889e-38
0.55737025 0.15197292 0.61000007 1.0786889e-38
0.56240767 0.15249269 0.61000007 1.0786889e-38
0.56748819 0.15301688 0.61000007 1.0786889e-38
0.5726071 0.15184768 0.61000007 1.0786889e-38
0.57777011 0.15237352 0.61000013 1.0786889e-38
0.58297235 0.15290333 0.61000019 1.0786889e-38
0.58716589 0.15247136 0.61000019 1.0786889e-38
0.59244776 0.15214458 0.61000019 1.0786889e-38
0.59777021 0.15267958 0.61000019 1.0786889e-38
0.60206097 0.15311088 0.61000031 1.0786889e-38
0.60773695 0.15215486 0.61000037 1.0786889e-38
0.61291271 0.15245061 0.61000037 1.0786889e-38
0.61730415 0.15288615 0.61000043 1.0786889e-38
0.62061614 0.15497592 0.61000043 1.0786889e-38
0.75366634 0.15245493 0.61000133 1.0786889e-38
0.75742948 0.15220863 0.61000139 1.0786889e-38
0.76148558 0.15257043 0.61000139 1.0786889e-38
0.76692724 0.15207779 0.61000139 1.0786889e-38
0.77240962 0.15256314 0.6100015 1.0786889e-38
0.77765572 0.1526331 0.6100015 1.0786889e-38
0.78349769 0.15255576 0.61000156 1.0786889e-38
0.78769761 0.15292478 0.61000162 1.0786889e-38
0.79192394 0.15230148 0.61000162 1.0786889e-38
0.79759461 0.15279599 0.61000162 1.0786889e-38
0.80330861 0.15229198 0.61000174 1.0786889e-38
0.80762142 0.1526652 0.61000168 1.0786889e-38
0.81225175 0.1524605 0.61000168 1.0786889e-38
0.81778592 0.15253289 0.6100018 1.0786889e-38
0.822182 0.15291041 0.61000186 1.0786889e-38
0.82660651 0.15227258 0.6100018 1.0786889e-38
0.83254415 0.15277849 0.61000192 1.0786889e-38
0.8370263 0.15213569 0.61000192 1.0786889e-38
0.84153748 0.15251707 0.61000198 1.0786889e-38
0.84728783 0.15259011 0.61000198 1.0786889e-38
0.85216224 0.1523805 0.61000204 1.0786889e-38
0.85676289 0.15276638 0.61000204 1.0786889e-38
0.86293745 0.1522423 0.6100021 1.0786889e-38
0.86759907 0.1526302 0.61000216 1.0786889e-38
0.55336589 0.15824674 0.61000001 1.0786889e-38
0.55737025 0.15700415 0.61000007 1.0786889e-38
0.56240767 0.15754402 0.61000007 1.0786889e-38
0.56723315 0.15784951 0.61000007 1.0786889e-38
0.5726071 0.15693974 0.61000007 1.0786889e-38
0.57777023 0.15748622 0.61000013 1.0786889e-38
0.58297235 0.1580368 0.61000019 1.0786889e-38
0.58737624 0.15712896 0.61000019 1.0786889e-38
0.59244776 0.15731591 0.61000019 1.0786889e-38
0.59777021 0.15787216 0.61000019 1.0786889e-38
0.60184574 0.15795046 0.61000025 1.0786889e-38
0.6074658 0.15714166 0.61000031 1.0786889e-38
0.61291271 0.15770365 0.61000037 1.0786889e-38
0.61708391 0.15778236 0.61000037 1.0786889e-38
0.62172508 0.15773152 0.61000043 1.0786889e-38
0.62729454 0.15830244 0.61000043 1.0786889e-38
0.63290793 0.15887788 0.61000049 1.0786889e-38
0.75384516 0.15802754 0.61000133 1.0786889e-38
0.75742942 0.15706716 0.61000139 1.0786889e-38
0.76148558 0.15744247 0.61000139 1.0786889e-38
0.76665419 0.15752912 0.61000139 1.0786889e-38
0.77240956 0.15747154 0.61000144 1.0786889e-38
0.77821004 0.15741262 0.6100015 1.0786889e-38
0.78349775 0.15750106 0.61000156 1.0786889e-38
0.78769761 0.15788406 0.61000162 1.0786889e-38
0.791924 0.15727481 0.61000156 1.0786889e-38
0.79759467 0.15778819 0.61000162 1.0786889e-38
0.80330867 0.15730321 0.61000162 1.0786889e-38
0.80762142 0.15769078 0.61000168 1.0786889e-38
0.81167156 0.15765116 0.61000168 1.0786889e-38
0.81778586 0.15759231 0.6100018 1.0786889e-38
0.822182 0.15798444 0.61000186 1.0786889e-38
0.82660657 0.15736136 0.6100018 1.0786889e-38
0.83224601 0.15745156 0.61000192 1.0786889e-38
0.83702624 0.15725914 0.61000192 1.0786889e-38
0.84153742 0.15765552 0.61000198 1.0786889e-38
0.84789574 0.15759456 0.61000198 1.0786889e-38
0.85216218 0.15755433 0.61000204 1.0786889e-38
0.85645533 0.15751316 0.61000204 1.0786889e-38
0.86293745 0.157452 0.61000216 1.0786889e-38
0.86759907 0.15785539 0.61000216 1.0786889e-38
0.43838614 0.16497095 0.61303985 1.0786889e-38
0.55336589 0.16326195 0.61000001 1.0786889e-38
0.55737031 0.16203536 0.61000007 1.0786889e-38
0.56240767 0.16259535 0.61000007 1.0786889e-38
0.56748825 0.1625957 0.61000007 1.0786889e-38
0.5726071 0.16203181 0.61000007 1.0786889e-38
0.57777017 0.16259888 0.61000013 1.0786889e-38
0.58297235 0.16317026 0.61000019 1.0786889e-38
0.58716589 0.16191413 0.61000019 1.0786889e-38
0.59244776 0.16248721 0.61000019 1.0786889e-38
0.59777021 0.16306472 0.61000019 1.0786889e-38
0.60227621 0.16216381 0.61000025 1.0786889e-38
0.6074658 0.16237293 0.61000031 1.0786889e-38
0.61291271 0.1629567 0.61000037 1.0786889e-38
0.6175245 0.16204485 0.61000037 1.0786889e-38
0.62172508 0.16213839 0.61000043 1.0786889e-38
0.6272946 0.16272785 0.61000049 1.0786889e-38
0.63268238 0.16294226 0.61000049 1.0786889e-38
0.63743407 0.16201736 0.61000055 1.0786889e-38
0.64176244 0.16282797 0.61000055 1.0786889e-38
0.64619559 0.16413023 0.61000055 1.0786889e-38
0.73880005 0.1649365 0.61000127 1.0786889e-38
0.74407405 0.16353396 0.61000127 1.0786889e-38
0.74832231 0.16240422 0.61000127 1.0786889e-38
0.75339836 0.16250831 0.61000133 1.0786889e-38
0.75742942 0.16289741 0.61000139 1.0786889e-38
0.76148564 0.1623145 0.61000139 1.0786889e-38
0.76720035 0.16227493 0.61000144 1.0786889e-38
0.77240962 0.16237994 0.6100015 1.0786889e-38
0.77765572 0.16248479 0.6100015 1.0786889e-38
0.78349769 0.16244635 0.61000156 1.0786889e-38
0.78769761 0.16284333 0.61000162 1.0786889e-38
0.79192394 0.16224815 0.61000156 1.0786889e-38
0.79759473 0.1627804 0.61000162 1.0786889e-38
0.80330861 0.16231446 0.61000168 1.0786889e-38
0.80762142 0.16271637 0.61000168 1.0786889e-38
0.81225175 0.16254249 0.61000168 1.0786889e-38
0.81778592 0.16265173 0.6100018 1.0786889e-38
0.822182 0.16204369 0.61000186 1.0786889e-38
0.82660657 0.16245013 0.6100018 1.0786889e-38
0.83284217 0.16240931 0.61000186 1.0786889e-38
0.8370263 0.1623826 0.61000192 1.0786889e-38
0.84153742 0.16279399 0.61000198 1.0786889e-38
0.84759176 0.1623144 0.61000198 1.0786889e-38
0.85216224 0.16272816 0.61000204 1.0786889e-38
0.85707033 0.16254917 0.61000204 1.0786889e-38
0.86293745 0.16266169 0.6100021 1.0786889e-38
0.86759907 0.16203555 0.61000216 1.0786889e-38
0.55336589 0.16827716 0.61000001 1.0786889e-38
0.55737025 0.16706657 0.61000007 1.0786889e-38
0.56240767 0.16764669 0.61000007 1.0786889e-38
0.56748825 0.16766733 0.61000007 1.0786889e-38
0.5726071 0.16712387 0.61000007 1.0786889e-38
0.57777017 0.16771157 0.61000013 1.0786889e-38
0.58276337 0.16793744 0.61000019 1.0786889e-38
0.58716589 0.16706435 0.61000019 1.0786889e-38
0.59244776 0.16765851 0.61000019 1.0786889e-38
0.59755641 0.16788678 0.61000025 1.0786889e-38
0.60206097 0.16700339 0.61000019 1.0786889e-38
0.6074658 0.16760424 0.61000037 1.0786889e-38
0.61269391 0.16783491 0.61000037 1.0786889e-38
0.61730421 0.16694105 0.61000037 1.0786889e-38
0.62172508 0.1674266 0.61000043 1.0786889e-38
0.62721878 0.16775471 0.61044192 1.0786889e-38
0.63313347 0.16725692 0.61000049 1.0786889e-38
0.63743407 0.16736835 0.61000055 1.0786889e-38
0.64199108 0.16786277 0.61000055 1.0786889e-38
0.64657921 0.16746268 0.61000055 1.0786889e-38
0.6523602 0.16718432 0.61000061 1.0786889e-38
0.6579535 0.16814634 0.61000067 1.0786889e-38
0.66288722 0.1683125 0.61000073 1.0786889e-38
0.66761929 0.16881967 0.61000073 1.0786889e-38
0.72192323 0.16895103 0.61000109 1.0786889e-38
0.72750503 0.16889204 0.61000115 1.0786889e-38
0.73226261 0.16810705 0.61000121 1.0786889e-38
0.73748875 0.16768174 0.61000121 1.0786889e-38
0.74275309 0.16725244 0.61000127 1.0786889e-38
0.74805617 0.16778548 0.61000127 1.0786889e-38
0.7533983 0.16735342 0.61000133 1.0786889e-38
0.75742948 0.16775593 0.61000139 1.0786889e-38
0.76148558 0.16718654 0.61000139 1.0786889e-38
0.76692724 0.16772628 0.61000139 1.0786889e-38
0.77240956 0.16728832 0.61000144 1.0786889e-38
0.77821004 0.16726801 0.6100015 1.0786889e-38
0.78349775 0.16739164 0.61000156 1.0786889e-38
0.78769761 0.16780262 0.61000162 1.0786889e-38
0.79192394 0.16722149 0.61000156 1.0786889e-38
0.79759467 0.16777262 0.61000168 1.0786889e-38
0.80330867 0.16732569 0.61000162 1.0786889e-38
0.80762142 0.16774195 0.61000168 1.0786889e-38
0.81196165 0.16715287 0.61000168 1.0786889e-38
0.81778586 0.16771114 0.6100018 1.0786889e-38
0.822182 0.16711773 0.61000186 1.0786889e-38
0.82660657 0.1675389 0.6100018 1.0786889e-38
0.83254415 0.16708238 0.61000192 1.0786889e-38
0.83702624 0.16750605 0.61000192 1.0786889e-38
0.84153742 0.16793247 0.61000198 1.0786889e-38
0.8475917 0.16747302 0.61000198 1.0786889e-38
0.85216218 0.16790199 0.61000204 1.0786889e-38
0.85676283 0.16729596 0.61000204 1.0786889e-38
0.86293745 0.16787139 0.61000216 1.0786889e-38
0.86759907 0.16726077 0.61000216 1.0786889e-38
0.55336589 0.1732924 0.61000001 1.0786889e-38
0.55737025 0.17209776 0.61000007 1.0786889e-38
0.56227005 0.173023 0.61069649 1.0786889e-38
0.56748825 0.17273895 0.61000007 1.0786889e-38
0.5726071 0.17221595 0.61000007 1.0786889e-38
0.57777011 0.17282426 0.61000013 1.0786889e-38
0.58318138 0.17209235 0.61000019 1.0786889e-38
0.58716589 0.17221455 0.61000019 1.0786889e-38
0.59244776 0.17282981 0.61000019 1.0786889e-38
0.59798402 0.1720895 0.61000025 1.0786889e-38
0.60206097 0.17221309 0.61000031 1.0786889e-38
0.6074658 0.17283553 0.61000037 1.0786889e-38
0.61313158 0.1720866 0.61000037 1.0786889e-38
0.61730421 0.17221165 0.61000037 1.0786889e-38
0.62172514 0.17271487 0.61000043 1.0786889e-38
0.62729484 0.17246266 0.61000049 1.0786889e-38
0.63290793 0.17221014 0.61000055 1.0786889e-38
0.63743407 0.17271931 0.61000055 1.0786889e-38
0.6417625 0.17284802 0.61000055 1.0786889e-38
0.64657921 0.17195229 0.61000055 1.0786889e-38
0.6523602 0.17259495 0.61000061 1.0786889e-38
0.65795344 0.17285413 0.61000067 1.0786889e-38
0.66288716 0.1719476 0.61000067 1.0786889e-38
0.66761929 0.17246735 0.61000073 1.0786889e-38
0.67238426 0.17299072 0.61000067 1.0786889e-38
0.67718261 0.17259942 0.61000085 1.0786889e-38
0.68201447 0.17404842 0.61000085 1.0786889e-38
0.68688035 0.17458285 0.61000091 1.0786889e-38
0.69055122 0.17498605 0.61000091 1.0786889e-38
0.70293224 0.17447503 0.61000097 1.0786889e-38
0.70669067 0.17394407 0.61000103 1.0786889e-38
0.71215349 0.17296433 0.61000103 1.0786889e-38
0.71706408 0.17260656 0.61000109 1.0786889e-38
0.72192329 0.17274332 0.61000109 1.0786889e-38
0.72707427 0.172337 0.61000115 1.0786889e-38
0.73252296 0.17233656 0.61000121 1.0786889e-38
0.73748875 0.17247391 0.61000121 1.0786889e-38
0.74248898 0.17261133 0.61000127 1.0786889e-38
0.74805617 0.17261282 0.61000127 1.0786889e-38
0.75339836 0.17219853 0.61000133 1.0786889e-38
0.75742942 0.17261446 0.61000139 1.0786889e-38
0.76121449 0.17261489 0.61000139 1.0786889e-38
0.76692724 0.17261639 0.61000144 1.0786889e-38
0.77240962 0.1721967 0.6100015 1.0786889e-38
0.77793288 0.17275923 0.6100015 1.0786889e-38
0.78349769 0.17233694 0.61000156 1.0786889e-38
0.78769761 0.17276189 0.61000162 1.0786889e-38
0.791924 0.17219484 0.61000156 1.0786889e-38
0.79759473 0.17276482 0.61000162 1.0786889e-38
0.80330867 0.17233692 0.61000168 1.0786889e-38
0.80762142 0.17276755 0.61000168 1.0786889e-38
0.81196165 0.17219289 0.61000174 1.0786889e-38
0.81778592 0.17277056 0.6100018 1.0786889e-38
0.822182 0.17219177 0.61000186 1.0786889e-38
0.82660651 0.17262766 0.6100018 1.0786889e-38
0.83254415 0.17219092 0.61000186 1.0786889e-38
0.8370263 0.17262952 0.61000192 1.0786889e-38
0.84123594 0.17262994 0.61000198 1.0786889e-38
0.84759176 0.17263164 0.61000198 1.0786889e-38
0.85216224 0.17307582 0.61000204 1.0786889e-38
0.85676283 0.17248511 0.61000204 1.0786889e-38
0.86293745 0.17203914 0.61000216 1.0786889e-38
0.86759907 0.17248598 0.61000216 1.0786889e-38
0.55336589 0.17830761 0.61000001 1.0786889e-38
0.55737019 0.17712899 0.61000007 1.0786889e-38
0.56240767 0.17774935 0.61000007 1.0786889e-38
0.56748855 0.17752875 0.61000007 1.0786889e-38
0.5726071 0.17730802 0.61000007 1.0786889e-38
0.57777017 0.17793696 0.61000013 1.0786889e-38
0.58307689 0.17661776 0.61044329 1.0786889e-38
0.58716589 0.17736477 0.61000019 1.0786889e-38
0.59244776 0.17800114 0.61000019 1.0786889e-38
0.59777021 0.17691155 0.61000019 1.0786889e-38
0.60206097 0.17742281 0.61000031 1.0786889e-38
0.60719436 0.17781614 0.61000037 1.0786889e-38
0.61291271 0.17696482 0.61000037 1.0786889e-38
0.61730421 0.17748223 0.61000037 1.0786889e-38
0.62172508 0.17800309 0.61000043 1.0786889e-38
0.62757391 0.17714261 0.61000049 1.0786889e-38
0.63290793 0.17754304 0.61000055 1.0786889e-38
0.63743407 0.17807031 0.61000055 1.0786889e-38
0.64221972 0.1771954 0.61000055 1.0786889e-38
0.64657921 0.17733979 0.61000055 1.0786889e-38
0.65206981 0.17774625 0.61000061 1.0786889e-38
0.65842181 0.17725392 0.61000067 1.0786889e-38
0.66288716 0.17740025 0.61000067 1.0786889e-38
0.66761929 0.17793888 0.61000073 1.0786889e-38
0.67238426 0.17756619 0.61000073 1.0786889e-38
0.67718261 0.17719086 0.61000085 1.0786889e-38
0.68201447 0.17773443 0.61000085 1.0786889e-38
0.68663621 0.17788415 0.61000091 1.0786889e-38
0.69202644 0.17737529 0.61000085 1.0786889e-38
0.69671541 0.17752565 0.61000091 1.0786889e-38
0.70143592 0.17767625 0.61000097 1.0786889e-38
0.70694184 0.17716113 0.61000103 1.0786889e-38
0.71173191 0.17731242 0.61000103 1.0786889e-38
0.71680927 0.17787008 0.61000109 1.0786889e-38
0.72192329 0.17748368 0.61000109 1.0786889e-38
0.72707433 0.1770945 0.61000115 1.0786889e-38
0.73226261 0.17765744 0.61000115 1.0786889e-38
0.73722649 0.17781231 0.61000121 1.0786889e-38
0.74301732 0.17728455 0.61000127 1.0786889e-38
0.74805617 0.17744017 0.61000127 1.0786889e-38
0.7531302 0.17759599 0.61000133 1.0786889e-38
0.75742948 0.17747299 0.61000139 1.0786889e-38
0.76175666 0.17734869 0.61000139 1.0786889e-38
0.76692724 0.17750655 0.6100015 1.0786889e-38
0.77213442 0.17766461 0.61000144 1.0786889e-38
0.77793288 0.17768601 0.6100015 1.0786889e-38
0.78349763 0.17728223 0.61000156 1.0786889e-38
0.78769761 0.17772114 0.61000162 1.0786889e-38
0.79192394 0.17716818 0.61000156 1.0786889e-38
0.79759467 0.17775705 0.61000168 1.0786889e-38
0.80330867 0.17734814 0.61000162 1.0786889e-38
0.80762142 0.17779313 0.61000168 1.0786889e-38
0.81196165 0.17723292 0.61000168 1.0786889e-38
0.81778586 0.17782998 0.6100018 1.0786889e-38
0.822182 0.17726582 0.61000186 1.0786889e-38
0.82660657 0.17771643 0.6100018 1.0786889e-38
0.83254409 0.17729945 0.61000186 1.0786889e-38
0.83702624 0.17775296 0.61000192 1.0786889e-38
0.84183896 0.17762269 0.61000192 1.0786889e-38
0.84728783 0.17734662 0.61000198 1.0786889e-38
0.85216224 0.17721489 0.61000204 1.0786889e-38
0.85676283 0.17767425 0.61000204 1.0786889e-38
0.86293745 0.17724884 0.6100021 1.0786889e-38
0.86759907 0.17771119 0.61000216 1.0786889e-38
0.55336589 0.18332283 0.61000001 1.0786889e-38
0.55737025 0.1821602 0.61000007 1.0786889e-38
0.56240767 0.18280067 0.61000007 1.0786889e-38
0.56748819 0.18231869 0.61000007 1.0786889e-38
0.5726071 0.18240006 0.61000007 1.0786889e-38
0.57751083 0.18280365 0.61000013 1.0786889e-38
0.58297235 0.18199296 0.61000019 1.0786889e-38
0.58716589 0.18251498 0.61000019 1.0786889e-38
0.59218252 0.18292359 0.61000019 1.0786889e-38
0.59777021 0.18210413 0.61000019 1.0786889e-38
0.60206097 0.18263251 0.61000031 1.0786889e-38
0.6074661 0.18242519 0.61000031 1.0786889e-38
0.61291271 0.18221785 0.61000037 1.0786889e-38
0.61730415 0.1827528 0.61000037 1.0786889e-38
0.62150323 0.18291149 0.61000043 1.0786889e-38
0.62729448 0.18219963 0.61000043 1.0786889e-38
0.63290793 0.18287595 0.61000055 1.0786889e-38
0.63743412 0.18252945 0.61000049 1.0786889e-38
0.64199108 0.1821806 0.61000055 1.0786889e-38
0.64657921 0.18272729 0.61000055 1.0786889e-38
0.65236056 0.18251322 0.61000061 1.0786889e-38
0.65818763 0.1822992 0.61000067 1.0786889e-38
0.66288716 0.18285288 0.61000067 1.0786889e-38
0.66761929 0.1824985 0.61000073 1.0786889e-38
0.67238432 0.18214166 0.61000067 1.0786889e-38
0.67718261 0.18270062 0.61000085 1.0786889e-38
0.68177205 0.18286631 0.61000085 1.0786889e-38
0.68712443 0.1823785 0.61000091 1.0786889e-38
0.69178057 0.18254513 0.61000085 1.0786889e-38
0.69646776 0.18271205 0.61000097 1.0786889e-38
0.7019347 0.18221845 0.61000097 1.0786889e-38
0.70669073 0.18238629 0.61000103 1.0786889e-38
0.71173191 0.18296014 0.61000103 1.0786889e-38
0.71680927 0.18259341 0.61000109 1.0786889e-38
0.72192329 0.18222404 0.61000109 1.0786889e-38
0.72707421 0.1828035 0.61000115 1.0786889e-38
0.73226261 0.18243222 0.61000121 1.0786889e-38
0.73775101 0.18247041 0.61000121 1.0786889e-38
0.74275309 0.18264346 0.61000127 1.0786889e-38
