# .PCD v0.7 - Point Cloud Data file format
VERSION 0.7
FIELDS x y z rgb
SIZE 4 4 4 4
TYPE F F F F
COUNT 1 1 1 1
WIDTH 1006
HEIGHT 1
VIEWPOINT 0 0 0 1 0 0 0
POINTS 1006
DATA ascii
0.63892454 0.04087235 0.66624963 8.8162076e-39
0.64460373 0.045624159 0.66379255 8.7243721e-39
0.65515387 0.04281823 0.66258246 1.0141516e-38
0.44979781 0.053552061 0.6634537 7.6582573e-39
0.45130906 0.054792978 0.66640192 7.5664218e-39
0.64962316 0.051392846 0.66707993 8.7243721e-39
0.65470725 0.055368129 0.66462773 8.7243721e-39
0.66023296 0.058303162 0.6642502 8.7243721e-39
0.45693961 0.062860899 0.66509259 8.3064685e-39
0.46252865 0.067533307 0.66544598 8.3064685e-39
0.66535538 0.063184619 0.66515619 8.7243721e-39
0.67248636 0.067811862 0.66514671 8.7243721e-39
0.46694896 0.070997901 0.66539162 8.3064685e-39
0.47471303 0.076087989 0.66455811 8.3064685e-39
0.48053002 0.079858765 0.66800863 8.3064685e-39
0.659495 0.072848171 0.66028333 9.381626e-39
0.67766666 0.070657291 0.66472071 8.7243721e-39
0.68120366 0.072511844 0.66610694 8.7243721e-39
0.4845669 0.082607992 0.66496617 8.3983096e-39
0.49250951 0.087860361 0.66558421 9.6858591e-39
0.48431537 0.090437032 0.66281646 8.8578654e-39
0.49741593 0.091020957 0.66390121 9.134102e-39
0.50485796 0.095640533 0.66498208 8.3983068e-39
0.51540834 0.10215671 0.66528273 9.0419036e-39
0.52475125 0.107366 0.66429394 8.9500639e-39
0.53443974 0.11252034 0.66516119 8.3983054e-39
0.54375744 0.11748385 0.66447717 8.3061098e-39
0.60933435 0.12942547 0.6645813 7.3576297e-40
0.60718709 0.13508894 0.66479349 2.5774965e-39
0.60581583 0.14499618 0.66492116 8.3883632e-39
0.60739833 0.15167649 0.66387945 1.2077628e-38
0.61174858 0.15488595 0.66428328 1.1801041e-38
0.44514897 0.19645566 0.6645987 1.1706156e-38
0.45254442 0.19158478 0.66496593 1.2074941e-38
0.43682835 0.20606436 0.66549063 1.1245192e-38
0.44038561 0.2011912 0.66357952 1.1706156e-38
0.42937496 0.21847074 0.66331702 3.1361816e-39
0.43192628 0.213948 0.66521698 3.1365348e-39
0.42716378 0.22465181 0.66459298 4.2421368e-39
0.42680827 0.23287542 0.66541636 7.7440237e-39
0.4321436 0.2377907 0.66526437 6.2689301e-39
0.43696269 0.24164836 0.66526598 6.7295383e-39
0.44299436 0.24570219 0.66693383 9.1258357e-39
0.45381585 -0.40415111 0.67567259 6.2448278e-39
0.44800273 -0.39518976 0.67455155 6.4306539e-39
0.45137402 -0.39949104 0.67249155 6.2448278e-39
0.44353092 -0.38632727 0.6745851 8.3688935e-39
0.4375377 -0.37598124 0.67512906 9.8397034e-39
0.42883229 -0.36051318 0.67769599 1.0852057e-38
0.43210724 -0.36621433 0.6748364 1.0205613e-38
0.42564312 -0.35456952 0.67505497 1.0762017e-38
0.41889372 -0.34202826 0.67590636 1.0578702e-38
0.42145792 -0.34677589 0.67415738 1.0949997e-38
0.41528648 -0.33510911 0.67523426 1.0674479e-38
0.40864992 -0.32249555 0.67496949 7.5384252e-39
0.41136989 -0.32761449 0.67475331 9.9394338e-39
0.40452325 -0.31470963 0.67481732 6.2448278e-39
0.42378905 -0.3180441 0.67912215 9.750379e-39
0.39843082 -0.30273721 0.67662174 6.2448278e-39
0.40135792 -0.30867803 0.67446357 6.2448278e-39
0.63673103 -0.30284452 0.67519391 2.6752007e-39
0.39751408 -0.29608506 0.67516834 6.9870717e-39
0.40127784 -0.29194951 0.67369521 6.2451865e-39
0.62660056 -0.29319066 0.6758666 2.7691998e-39
0.63169199 -0.29803187 0.67452455 2.8595975e-39
0.40620133 -0.28613353 0.67487156 7.2589671e-39
0.41098383 -0.28117162 0.67449999 6.8927167e-39
0.61935604 -0.28028697 0.67467177 2.8599577e-39
0.62220854 -0.28525218 0.67486173 2.8599577e-39
0.41605717 -0.27836329 0.67493123 8.745627e-39
0.42511895 -0.27487996 0.67509544 7.9122692e-39
0.43350172 -0.27153379 0.67495322 7.3565731e-39
0.59523535 -0.27170157 0.67245126 2.7860868e-39
0.61627334 -0.27476227 0.67529154 5.901661e-39
0.43819499 -0.26892126 0.67345601 8.7452683e-39
0.44270286 -0.26699474 0.67542523 8.0041033e-39
0.60756534 -0.262986 0.6750527 1.1708845e-38
0.61207598 -0.2683416 0.6755299 1.1616651e-38
0.5988754 -0.25226516 0.67460716 6.169166e-39
0.60273945 -0.25694236 0.67535192 9.9546015e-39
0.588929 -0.24006809 0.67129791 5.9836944e-39
0.59339172 -0.24525149 0.67484212 5.9836944e-39
0.58525336 -0.23465058 0.674936 5.8914988e-39
0.57710576 -0.22426459 0.67468697 5.9836944e-39
0.58135873 -0.22924007 0.67680663 5.983693e-39
0.5668118 -0.21236314 0.6744296 5.9840545e-39
0.57186836 -0.21761595 0.67596459 5.8914988e-39
0.55785054 -0.20242423 0.67565018 1.1708485e-38
0.56240606 -0.20758882 0.67460746 7.8312139e-39
0.54893327 -0.19205326 0.67523897 2.8599577e-39
0.5532701 -0.19702259 0.67530155 8.2061678e-39
0.52900171 -0.18774603 0.67355424 1.1708845e-38
0.54583693 -0.18520693 0.67500776 2.8599577e-39
0.53984916 -0.17051569 0.67626643 2.8599577e-39
0.5419783 -0.17570411 0.67505747 2.8599577e-39
0.53846735 -0.16553286 0.67501128 2.8599577e-39
0.54123265 -0.16097547 0.6741485 2.8599577e-39
0.54633325 -0.15764636 0.67554349 2.8599577e-39
0.55489266 -0.15320104 0.67501503 2.8599577e-39
0.56131041 -0.15052131 0.67645222 2.8599577e-39
0.56536436 -0.14880125 0.67768401 2.9517932e-39
0.57724494 -0.14982575 0.67035037 1.3183975e-38
0.44703761 -0.072081842 0.67374247 6.8250116e-39
0.45216292 -0.074412622 0.67588532 7.5629367e-39
0.4368467 -0.06327416 0.67501944 5.9930761e-39
0.4414902 -0.068837024 0.67527229 6.36186e-39
0.70792699 -0.063111171 0.67357087 6.7958267e-39
0.71230233 -0.067021064 0.67524201 8.0995303e-39
0.43422884 -0.054166574 0.67467207 7.2841778e-39
0.44697723 -0.052597303 0.67279041 7.3760105e-39
0.69808722 -0.052265901 0.67385507 6.4284847e-39
0.70301539 -0.057718929 0.67416298 6.5203202e-39
0.43676779 -0.045868885 0.67488748 7.1948787e-39
0.44135281 -0.041179355 0.67549902 6.4584011e-39
0.68979716 -0.040874686 0.6763218 8.7243721e-39
0.69305164 -0.045427442 0.67484868 8.5407011e-39
0.44656551 -0.037405245 0.67496544 6.0896213e-39
0.45393389 -0.032521375 0.67401409 2.6751727e-39
0.67297053 -0.037726324 0.67556906 8.7243721e-39
0.6858325 -0.035166934 0.6750204 8.7243721e-39
0.45847812 -0.029096467 0.67651719 2.8581234e-39
0.46526834 -0.0244075 0.67493296 4.4290378e-39
0.47285146 -0.020310244 0.67448545 6.458764e-39
0.67766511 -0.023491394 0.67520428 8.7243721e-39
0.6813364 -0.028760029 0.67582983 8.7243721e-39
0.66915351 -0.011293739 0.67464215 8.7243721e-39
0.67275947 -0.016500095 0.67515343 8.7243721e-39
0.66484946 -0.0049715778 0.67472786 8.7243721e-39
0.65723634 0.0062618745 0.67510134 8.7243721e-39
0.66072708 0.0011779098 0.67409486 8.7243721e-39
0.62994707 0.017489202 0.67643005 9.0002388e-39
0.64854556 0.018562777 0.67472214 8.7243721e-39
0.65225279 0.013506982 0.67499959 8.7243721e-39
0.64408118 0.025132921 0.67538172 8.7243721e-39
0.63917577 0.036477044 0.67722255 9.4601365e-39
0.64139134 0.036187775 0.67359334 9.1835496e-39
0.4637168 0.048815083 0.67539191 4.9792647e-39
0.63944447 0.043061715 0.67340285 9.3675807e-39
0.64287424 0.045218784 0.67710125 9.8263981e-39
0.45200345 0.054910645 0.67561936 7.3809697e-39
0.64789629 0.050972149 0.67512554 8.8162076e-39
0.65603966 0.056551047 0.67539704 8.7247323e-39
0.67798007 0.054055959 0.67575234 8.7243721e-39
0.45688581 0.06261798 0.67610651 8.3064685e-39
0.46277407 0.067911714 0.67524123 8.3064685e-39
0.6658712 0.063788772 0.67490304 8.7243721e-39
0.67398274 0.06845814 0.67384279 8.7243721e-39
0.45342791 0.071667939 0.67706299 8.3061098e-39
0.46777096 0.071509719 0.67440772 8.3064685e-39
0.47429389 0.075647101 0.67491472 8.3064685e-39
0.48026237 0.079572335 0.67371988 8.3064685e-39
0.678137 0.070427239 0.67197043 8.7243721e-39
0.68283081 0.071780808 0.67431641 8.7243721e-39
0.48527163 0.082894035 0.67527246 8.3064699e-39
0.49265289 0.08770372 0.6749236 9.8695385e-39
0.49826461 0.091425389 0.67520481 8.9500639e-39
0.50447601 0.09546382 0.67495728 8.3064699e-39
0.51127476 0.09833058 0.67436755 8.4901493e-39
0.51593709 0.10268203 0.67569238 9.1341034e-39
0.52421212 0.10736415 0.67520297 8.6741874e-39
0.52957273 0.11022475 0.67334378 8.3064685e-39
0.53546989 0.11346539 0.67537022 8.3064685e-39
0.54190803 0.11689404 0.67393857 8.3064685e-39
0.60207015 0.1205647 0.67911214 8.8493483e-39
0.60692829 0.13539742 0.67465991 6.1529923e-39
0.60588896 0.14508432 0.67482322 1.0134681e-38
0.60700715 0.15161872 0.67439049 1.1801041e-38
0.61210531 0.15521888 0.67549497 1.1801041e-38
0.44437549 0.19607019 0.67504013 1.179835e-38
0.45296198 0.19222488 0.67424273 1.3089445e-38
0.43705386 0.20556191 0.67541826 1.1614322e-38
0.44035459 0.2005517 0.67401594 1.179835e-38
0.41719937 0.21140121 0.67843372 7.2834225e-39
0.42887658 0.21800673 0.67573482 7.7454531e-39
0.43209845 0.21305402 0.6750834 7.0079118e-39
0.42660272 0.22508782 0.67497307 7.6543392e-39
0.42693871 0.23214963 0.67499566 8.2968262e-39
0.43288064 0.23759818 0.67353439 6.3614901e-39
0.43862271 0.24197781 0.67421484 7.0986781e-39
0.44219461 0.24456549 0.6745531 8.4808517e-39
0.61747217 0.241907 0.6700052 5.5368399e-39
0.60882711 0.26753855 0.67294067 5.6294013e-39
0.61648923 0.29492736 0.67051291 5.5364798e-39
0.63227528 0.31043756 0.67029685 5.0762261e-39
0.45387077 -0.4053798 0.68540561 6.2448278e-39
0.4473913 -0.39474154 0.68525428 6.2451865e-39
0.43966478 -0.3815029 0.68623322 7.0760149e-39
0.44241649 -0.38605368 0.68437982 6.7990721e-39
0.43586534 -0.37452319 0.68471491 9.0110288e-39
0.42897785 -0.36221409 0.68544477 1.0852056e-38
0.43137354 -0.36637586 0.68408418 1.0574033e-38
0.42471701 -0.3543157 0.68600678 1.0947124e-38
0.41845861 -0.34208265 0.68445766 1.1137614e-38
0.42118397 -0.34723267 0.68404502 1.1136182e-38
0.41471681 -0.33507168 0.68532902 1.0953216e-38
0.40858364 -0.32349831 0.68533081 7.719225e-39
0.41119415 -0.32834151 0.68478936 9.748584e-39
0.40430465 -0.31547877 0.68499875 6.8898314e-39
0.39942706 -0.30211654 0.68297577 6.2448278e-39
0.40057969 -0.30573371 0.68539625 5.6938134e-39
0.63667667 -0.30067191 0.68162799 3.1365516e-39
0.6408931 -0.30335718 0.6819796 2.3064098e-39
0.39850047 -0.29491469 0.68459928 6.2448278e-39
0.42771181 -0.29263264 0.68543857 7.1678532e-39
0.62672663 -0.29246879 0.68527406 2.8599591e-39
0.63215446 -0.29723725 0.68418068 3.0443559e-39
0.39880219 -0.28838438 0.68806475 6.2448278e-39
0.4052161 -0.28413659 0.68509215 7.0749373e-39
0.41069812 -0.28057995 0.68512744 6.5232181e-39
0.61984313 -0.28075808 0.68430185 2.8599577e-39
0.62275976 -0.28584772 0.68544471 2.8599577e-39
0.41568452 -0.27792147 0.68562341 8.0041033e-39
0.42465597 -0.27391791 0.68573868 8.0041019e-39
0.43321973 -0.27107692 0.68498504 6.8012427e-39
0.61691403 -0.27506196 0.68547994 6.2704393e-39
0.43809056 -0.26936144 0.68539131 7.1729091e-39
0.44394216 -0.26763946 0.68546307 6.7083282e-39
0.60806656 -0.26215598 0.68623209 1.1708845e-38
0.61194724 -0.26718539 0.68458998 1.1708845e-38
0.59920949 -0.25114053 0.68441057 1.1155308e-38
0.60315555 -0.2560524 0.68479073 1.1708845e-38
0.59469581 -0.24513246 0.68486881 1.023155e-38
0.58658999 -0.23514739 0.68483114 8.6627781e-39
0.57774967 -0.22314151 0.68470758 8.2932739e-39
0.58179319 -0.22834603 0.68555176 8.8471707e-39
0.56815535 -0.21166301 0.68400162 9.9549616e-39
0.5727061 -0.2165785 0.68530905 1.0139354e-38
0.55887842 -0.20148112 0.68523306 1.1708845e-38
0.56337738 -0.20636013 0.68497676 1.1339701e-38
0.54966307 -0.19113104 0.68256807 2.8599577e-39
0.5533219 -0.19536495 0.68532932 7.1001915e-39
0.54618186 -0.18506375 0.68617469 2.8599577e-39
0.5390138 -0.17288676 0.68667746 2.8599605e-39
0.54134828 -0.17677467 0.68800014 2.8599605e-39
0.5380795 -0.16526115 0.68555617 2.8599577e-39
0.54090542 -0.16055618 0.68538374 2.8599577e-39
0.54526901 -0.15755919 0.68606097 2.8599577e-39
0.55500752 -0.15250988 0.68436211 2.8599577e-39
0.54667306 -0.14717813 0.68845987 2.8599591e-39
0.55965197 -0.14969096 0.68877637 2.8599577e-39
0.56554401 -0.14864028 0.68511999 2.8599577e-39
0.57391751 -0.14701022 0.68478155 2.9521519e-39
0.44588587 -0.071394414 0.68402594 6.1792764e-39
0.45352751 -0.074476331 0.68099332 7.7491357e-39
0.43756229 -0.063699149 0.68479818 6.9146722e-39
0.44144073 -0.068379179 0.68563694 6.3618586e-39
0.7067399 -0.063258834 0.68633348 8.5594267e-39
0.712789 -0.0678996 0.68535525 1.1060232e-38
0.43417743 -0.055227421 0.68518668 7.1927053e-39
0.69846827 -0.053297374 0.68516546 8.918487e-39
0.70238245 -0.058058202 0.68570536 7.7267864e-39
0.71122724 -0.056140628 0.68933785 1.0039973e-38
0.43747896 -0.046451356 0.68486553 6.6427909e-39
0.44145137 -0.04134151 0.68535179 7.1956018e-39
0.68927181 -0.04049056 0.68448234 9.2840269e-39
0.69307959 -0.045940027 0.68511426 9.3776645e-39
0.44645527 -0.037616018 0.6848622 7.195243e-39
0.45328912 -0.032815643 0.68461972 3.9633779e-39
0.68543428 -0.035039511 0.68466747 9.2843871e-39
0.45866027 -0.028933799 0.6852563 2.6737363e-39
0.46484199 -0.024779027 0.68504798 5.0726023e-39
0.47171375 -0.020963367 0.68446988 8.0242792e-39
0.67729175 -0.023461467 0.68504792 5.9751128e-39
0.68105823 -0.028842172 0.68489021 7.0782052e-39
0.47574607 -0.019021692 0.6862185 8.2086691e-39
0.66865951 -0.011053023 0.68425179 6.250255e-39
0.67232758 -0.016336048 0.68523103 5.7003308e-39
0.66445559 -0.0050096745 0.68513465 5.4255488e-39
0.65738869 0.0056817285 0.68484598 1.0029516e-38
0.6608178 0.00046496419 0.68417072 7.2643971e-39
0.64857292 0.018587844 0.68486029 1.0124231e-38
0.65219086 0.013444221 0.68468869 1.0030955e-38
0.64357018 0.025252786 0.68523246 1.0311504e-38
0.67382193 0.027125657 0.68794543 1.3460561e-38
0.63882244 0.033963513 0.68536729 1.0683167e-38
0.64130354 0.036707565 0.68488652 1.076996e-38
0.45636368 0.048711676 0.68959868 5.8083247e-39
0.64590806 0.045466777 0.68414629 1.0580528e-38
0.44992876 0.051630385 0.68147361 5.8083247e-39
0.45250294 0.054075744 0.68524837 6.9185707e-39
0.64929909 0.050629418 0.68279874 9.8375622e-39
0.65478909 0.055170525 0.6853525 9.1140424e-39
0.66217172 0.059773855 0.68679595 1.3552758e-38
0.45760974 0.062063467 0.68477613 8.3064685e-39
0.46303225 0.067237519 0.68441576 8.3064685e-39
0.65519828 0.068985119 0.68343896 1.3552755e-38
0.66570222 0.063475594 0.68524814 9.0236474e-39
0.67279518 0.068685316 0.6867916 1.0965158e-38
0.46861082 0.071777835 0.68400341 8.3064685e-39
0.4755854 0.076431617 0.68463707 8.3064685e-39
0.49064121 0.07891947 0.68616736 9.5982667e-39
0.67598653 0.070869356 0.68627995 1.0123873e-38
0.48555455 0.083042659 0.68476057 8.674186e-39
0.49269381 0.087895937 0.68527222 9.8695385e-39
0.49698141 0.091590606 0.6856606 8.3983096e-39
0.50496155 0.095809065 0.68526298 8.3064685e-39
0.51002055 0.098973997 0.68239999 8.3983054e-39
0.51546854 0.10238437 0.68506598 8.4901479e-39
0.52410871 0.10745184 0.68513089 8.3064685e-39
0.53449738 0.11314461 0.68574703 8.3064685e-39
0.54313779 0.11724853 0.68537396 1.0151792e-38
0.60710526 0.13568877 0.68497431 6.2451879e-39
0.60547978 0.14493883 0.68535298 1.078221e-38
0.60755557 0.15189637 0.68430465 1.1801041e-38
0.6128481 0.1553559 0.68607146 1.1801041e-38
0.45461953 0.1899211 0.68973559 1.1799086e-38
0.44514605 0.19566341 0.68512112 1.2167127e-38
0.4521637 0.19064116 0.68709832 1.207494e-38
0.43743762 0.20557529 0.68514323 1.179835e-38
0.44051057 0.20076439 0.68458807 1.179835e-38
0.42898703 0.21818598 0.68432599 4.9021722e-39
0.43241817 0.21306056 0.68463206 8.2121499e-39
0.42626351 0.22424024 0.6848163 7.3820613e-39
0.42817783 0.23244399 0.68444526 7.0064937e-39
0.43258083 0.23780477 0.68538731 6.3611271e-39
0.43696463 0.24113762 0.68934202 5.9001476e-39
0.44417411 0.245764 0.68415564 9.7711897e-39
0.45829648 -0.41175309 0.6943382 6.2448278e-39
0.46012321 -0.41435602 0.6966579 6.2448278e-39
0.45338318 -0.40425721 0.69533211 6.2448278e-39
0.44660503 -0.39459905 0.69459355 6.4295763e-39
0.45220056 -0.39690831 0.69445837 6.2448278e-39
0.43794388 -0.38019735 0.6981492 9.5609655e-39
0.44154087 -0.38600188 0.69420213 7.7220962e-39
0.43518963 -0.37492567 0.69536817 9.9293865e-39
0.44034111 -0.37069255 0.69173396 7.5362714e-39
0.4284246 -0.36304861 0.69630533 1.0852056e-38
0.43189201 -0.36865473 0.69244009 1.0481839e-38
0.4242444 -0.3550643 0.69496024 1.0947485e-38
0.41785452 -0.34273863 0.69576257 1.113797e-38
0.42058334 -0.34784019 0.69431502 1.1136899e-38
0.41385356 -0.33477572 0.69493479 1.0582285e-38
0.40799969 -0.32352662 0.69522655 8.9173982e-39
0.41074261 -0.32859093 0.69408488 1.0114494e-38
0.40344656 -0.31490979 0.6949634 6.7979959e-39
0.39974967 -0.30303276 0.69588894 6.2448278e-39
0.40035954 -0.30701768 0.6940313 6.1529923e-39
0.63710773 -0.30560628 0.69649863 2.7753066e-39
0.64072418 -0.30365348 0.69472271 2.8599577e-39
0.38791215 -0.29978389 0.69943804 6.3377394e-39
0.39857787 -0.29478985 0.69433546 6.2448278e-39
0.62766832 -0.29213083 0.69479156 2.8599577e-39
0.63262641 -0.2973206 0.6961813 2.7677621e-39
0.39869186 -0.28838918 0.69501734 6.2448278e-39
0.40468109 -0.28428373 0.69529617 7.1674917e-39
0.41094133 -0.28051841 0.69461441 7.6342432e-39
0.62358361 -0.28504407 0.69509089 2.8599577e-39
0.41552442 -0.27796742 0.69496047 7.726436e-39
0.42429107 -0.27311879 0.69563723 8.7449068e-39
0.4328934 -0.27067378 0.69253963 1.0227597e-38
0.449821 -0.27174026 0.69983315 9.1835706e-39
0.61750019 -0.27480295 0.6944347 4.1503224e-39
0.62054372 -0.27965951 0.69727695 2.8599577e-39
0.43625042 -0.26921213 0.69572252 8.0977395e-39
0.44384098 -0.26806879 0.69504577 6.7983617e-39
0.608881 -0.26180977 0.69530934 1.1801041e-38
0.61252975 -0.2668055 0.6952033 1.1708845e-38
0.60361713 -0.25506613 0.6950084 1.1801041e-38
0.57756174 -0.24561927 0.69223833 9.5858176e-39
0.5957374 -0.24487969 0.69530678 1.1801041e-38
0.5715242 -0.23107126 0.69743145 6.8159802e-39
0.58715248 -0.23395097 0.6947251 1.1801041e-38
0.59117287 -0.23904409 0.6952247 1.1801041e-38
0.60005987 -0.23364078 0.69758469 1.0970197e-38
0.57825142 -0.22260186 0.69454759 1.1708845e-38
0.58199531 -0.2272816 0.69525194 1.1708845e-38
0.59649318 -0.22451484 0.69034731 5.0738005e-39
0.56908762 -0.2108973 0.69516611 1.1155677e-38
0.57324475 -0.2161739 0.69523185 1.1708845e-38
0.56413001 -0.20505938 0.69491041 1.0325926e-38
0.58875895 -0.20823482 0.69737965 4.4366076e-39
0.5549593 -0.19486929 0.69483644 4.242518e-39
0.54738492 -0.18456273 0.69495225 2.8599605e-39
0.55068088 -0.1895128 0.69642109 2.8599577e-39
0.53984034 -0.17090115 0.69411612 2.9521561e-39
0.54284567 -0.17590058 0.69325954 2.9521575e-39
0.53905988 -0.16559786 0.69417679 2.8599591e-39
0.54109931 -0.16302446 0.69401562 2.8599591e-39
0.54612434 -0.1568802 0.69449121 2.8599577e-39
0.55347085 -0.15171362 0.69474351 2.8599577e-39
0.55906361 -0.14989477 0.69829589 2.8599577e-39
0.56510413 -0.14823313 0.69524688 2.8599577e-39
0.57391959 -0.1461511 0.69484252 2.8599577e-39
0.44781065 -0.071958452 0.69502556 7.7480511e-39
0.45227551 -0.07394553 0.6965059 7.7491399e-39
0.46407625 -0.07201995 0.69310641 5.6224901e-39
0.43777773 -0.062640898 0.69475931 7.8369887e-39
0.44218585 -0.068047754 0.69519824 8.2061327e-39
0.70771408 -0.06210231 0.69403684 1.2814469e-38
0.71351242 -0.066130787 0.69602817 1.2262375e-38
0.4347564 -0.055019308 0.69474459 7.5614864e-39
0.69796771 -0.052023888 0.69544232 1.2445687e-38
0.70259488 -0.056794159 0.69537491 1.3183614e-38
0.43778014 -0.046571534 0.69521457 5.9963383e-39
0.44131392 -0.041753963 0.69530427 6.0896185e-39
0.68744463 -0.040664963 0.69307733 1.0594932e-38
0.69329488 -0.045458626 0.69541913 1.2169459e-38
0.4462328 -0.038024507 0.69508463 6.0896171e-39
0.45392019 -0.032643616 0.69526172 5.443896e-39
0.46725199 -0.037680734 0.69678962 6.826822e-39
0.68582511 -0.034597505 0.69539261 1.207727e-38
0.69029593 -0.0389985 0.69968593 1.4473985e-38
0.70745814 -0.035328075 0.69957227 1.1241743e-38
0.45906678 -0.029115841 0.69571912 5.6279243e-39
0.46457234 -0.025243284 0.69509894 5.7204801e-39
0.4710618 -0.020912405 0.6966821 6.089257e-39
0.67760694 -0.023323307 0.69480175 2.8595989e-39
0.68166953 -0.028139675 0.69680691 6.2708106e-39
0.4755609 -0.019297656 0.69415665 6.6427923e-39
0.66948193 -0.012289288 0.69328058 2.8599591e-39
0.67331421 -0.01566357 0.69636154 3.1361816e-39
0.66577244 -0.005394985 0.69557476 3.1361872e-39
0.7146908 -0.0032691862 0.6989429 4.1427539e-39
0.65783274 0.0066060326 0.69482988 1.0971279e-38
0.66145289 0.0017817942 0.69642848 9.0355571e-39
0.64910394 0.01889036 0.69347912 1.0878721e-38
0.65292245 0.014292161 0.69576812 1.05103e-38
0.64561898 0.025297854 0.69503385 1.0233714e-38
0.63908619 0.036903467 0.69313735 1.1247865e-38
0.64150774 0.034237199 0.69648558 9.8649324e-39
0.45455891 0.049256582 0.69500148 6.1771072e-39
0.64529979 0.045333344 0.69568211 1.1524089e-38
0.65069342 0.049904358 0.69880408 1.0325908e-38
0.44999754 0.052732602 0.69441688 5.9930691e-39
0.45187324 0.055170912 0.69572729 7.6579083e-39
0.64939725 0.050847489 0.69274712 1.0233714e-38
0.65539026 0.054860014 0.69555068 9.0351717e-39
0.66137487 0.058704957 0.69734186 8.9429761e-39
0.45668674 0.062743165 0.69469118 8.3061098e-39
0.46217251 0.067801878 0.69505835 8.3064685e-39
0.66595834 0.062666543 0.69468254 9.3117586e-39
0.67487699 0.067311853 0.69520569 1.2354213e-38
0.68282759 0.069732942 0.69736195 1.3368003e-38
0.467417 0.071386613 0.69450355 8.3064685e-39
0.47460255 0.076132901 0.69502747 8.3064685e-39
0.48031682 0.079932146 0.69695795 8.3064685e-39
0.67814815 0.071516812 0.69097722 1.3736786e-38
0.68479288 0.071614102 0.69535738 1.3736786e-38
0.48491883 0.082882077 0.69446498 8.3064699e-39
0.49284291 0.088101111 0.69529432 8.3983068e-39
0.49807128 0.091457985 0.69417912 8.3064685e-39
0.50462717 0.095639125 0.69489187 8.3064685e-39
0.51120287 0.099707462 0.69604945 8.3064685e-39
0.5269928 0.097278342 0.69012022 7.4749282e-39
0.51603687 0.10265199 0.69474387 8.3064685e-39
0.52434379 0.10751572 0.69497848 8.5819764e-39
0.51461065 0.11475354 0.6970979 8.8525279e-39
0.52960891 0.11033119 0.69378608 8.4901381e-39
0.53463763 0.11288682 0.69366992 9.2284108e-39
0.54165202 0.11470522 0.69327712 1.0243986e-38
0.60758275 0.13490725 0.69494981 1.078221e-38
0.60582089 0.14466661 0.69546801 1.1708845e-38
0.60704124 0.15170337 0.695925 1.1801041e-38
0.61284965 0.1555713 0.6970787 1.1801041e-38
0.45420969 0.18973316 0.69553334 1.1890911e-38
0.44420215 0.19607377 0.6949231 1.179835e-38
0.4524993 0.19121373 0.6926952 1.1890544e-38
0.43682531 0.20545563 0.69528204 1.179835e-38
0.44050515 0.20098266 0.6914196 1.2259321e-38
0.42817664 0.2175781 0.69541115 4.9021722e-39
0.43164605 0.21289136 0.69447351 9.2237613e-39
0.42536381 0.22472523 0.6952256 8.8535578e-39
0.42849731 0.23333722 0.69446367 5.6239236e-39
0.43295106 0.23802885 0.69538683 5.2551467e-39
0.43850273 0.2421 0.69335741 6.2689203e-39
0.44308147 0.24459817 0.69635862 8.6652275e-39
0.46564993 -0.42215455 0.7047928 6.2448278e-39
0.45879126 -0.41185403 0.70379275 6.2448278e-39
0.4622643 -0.41709474 0.70393604 6.2448278e-39
0.45624623 -0.40817401 0.70134544 6.2448278e-39
0.44568339 -0.39425164 0.70731586 6.890909e-39
0.43889529 -0.38258076 0.70430988 9.8425775e-39
0.44182244 -0.3876107 0.70517921 8.4607346e-39
0.42397645 -0.37933591 0.70378643 1.1041115e-38
0.43462902 -0.37520167 0.70519233 9.7489455e-39
0.4274703 -0.36253199 0.70615762 1.0944971e-38
0.4307003 -0.36815605 0.7047264 1.0482916e-38
0.42341441 -0.35469919 0.7045595 1.1040756e-38
0.41798374 -0.34432223 0.70541549 1.1138329e-38
0.42056802 -0.34922349 0.70471096 1.113726e-38
0.39670014 -0.33044124 0.70692599 7.9997607e-39
0.41315734 -0.33482733 0.70472378 1.1047208e-38
0.40775719 -0.32445309 0.70517153 9.8501207e-39
0.41001213 -0.3292771 0.70835292 1.1235555e-38
0.40295181 -0.3150641 0.70499814 6.8927083e-39
0.41914648 -0.3168008 0.70021045 1.1137971e-38
0.3985436 -0.30510274 0.70599765 6.2448278e-39
0.40029702 -0.30951101 0.70703036 6.2448278e-39
0.63705981 -0.30085874 0.70243436 2.8599577e-39
0.39694059 -0.29315007 0.70591789 6.2448278e-39
0.60900986 -0.29421908 0.70773125 2.7868057e-39
0.62846917 -0.29138044 0.70373565 2.8599577e-39
0.63337398 -0.29637563 0.70481354 2.8599577e-39
0.39897266 -0.28885704 0.70189422 6.2448278e-39
0.40503666 -0.28544912 0.70499343 6.9827417e-39
0.41095114 -0.28060851 0.70490807 6.2448278e-39
0.62440634 -0.285106 0.70528179 2.8606751e-39
0.416004 -0.2776598 0.70464975 7.8200722e-39
0.42495242 -0.27258804 0.70507717 7.4491289e-39
0.6176039 -0.27394336 0.70489109 3.5060389e-39
0.62063253 -0.27901578 0.70456851 2.8606765e-39
0.43340328 -0.26813278 0.70616567 6.2448278e-39
0.44240597 -0.26700613 0.70493263 7.3493774e-39
0.60948372 -0.26086122 0.70363069 1.1801041e-38
0.61274785 -0.26577485 0.70538217 1.0604665e-38
0.60523009 -0.25491196 0.70513409 1.0973445e-38
0.5966565 -0.24376428 0.705006 1.106528e-38
0.60052902 -0.24899304 0.70406091 1.143334e-38
0.58802646 -0.23306057 0.7046051 1.124931e-38
0.59221363 -0.23808742 0.7051273 1.124931e-38
0.57830143 -0.22128378 0.70399195 1.1525175e-38
0.58254182 -0.22623903 0.70517749 1.1341146e-38
0.54756284 -0.21113984 0.70107192 2.8599577e-39
0.56973279 -0.21065667 0.70368671 3.5053201e-39
0.57389742 -0.21554112 0.70546991 9.0366375e-39
0.5655154 -0.20504092 0.70525551 3.3216491e-39
0.55650234 -0.1941025 0.70459402 2.8599577e-39
0.5608986 -0.19913878 0.70590711 2.8603164e-39
0.54815382 -0.18268584 0.70407194 2.8599577e-39
0.55190361 -0.18693165 0.7061879 2.8599577e-39
0.53938341 -0.17111367 0.70221436 2.9517946e-39
0.54389662 -0.17530088 0.70567739 2.8599577e-39
0.5395118 -0.1673895 0.70254248 2.8599577e-39
0.54081279 -0.16388842 0.70572972 2.8599577e-39
0.5445981 -0.15612863 0.70537257 2.8599577e-39
0.5551914 -0.15143082 0.704961 2.8599577e-39
0.56532681 -0.14855035 0.70415223 2.8599577e-39
0.57479894 -0.14599149 0.70445758 2.8599577e-39
0.58053493 -0.14521818 0.7090953 2.8599577e-39
0.44949895 -0.070999175 0.70161319 6.825013e-39
0.45381778 -0.071876392 0.70325321 5.7107088e-39
0.43863723 -0.062183123 0.70245695 5.8998e-39
0.44460228 -0.065423168 0.70614487 5.2475615e-39
0.45474795 -0.06842462 0.70803273 5.796757e-39
0.46403021 -0.063815996 0.70873493 6.4406816e-39
0.47263798 -0.061933622 0.70446658 6.1658996e-39
0.70916522 -0.060148738 0.70072281 1.2815193e-38
0.71483481 -0.062255599 0.70310563 1.235421e-38
0.7220189 -0.061354082 0.70391256 1.79767e-38
0.43725413 -0.054347392 0.70421749 5.065338e-39
0.44147193 -0.055848662 0.70862371 4.7847728e-39
0.47513029 -0.057744827 0.70834237 6.1648164e-39
0.48362732 -0.052288476 0.70850801 6.4410404e-39
0.69950664 -0.05167811 0.70035952 1.4290321e-38
0.70560217 -0.054165412 0.70357567 1.4382514e-38
0.71475959 -0.054757021 0.70693326 1.7424971e-38
0.72474599 -0.053880602 0.70649052 1.576509e-38
0.73141456 -0.051354084 0.70647764 1.5581061e-38
0.43829989 -0.047030635 0.70392066 4.0504616e-39
0.44373652 -0.043664102 0.70676464 4.6014676e-39
0.45013481 -0.040785626 0.70948923 4.7847728e-39
0.48966372 -0.0491843 0.70611989 6.7169056e-39
0.49186569 -0.044479307 0.70736158 6.7169056e-39
0.69688922 -0.04462957 0.70197517 1.4474711e-38
0.70536429 -0.044764385 0.70444876 1.8530956e-38
0.71542829 -0.045211371 0.70573252 1.5673257e-38
0.72513455 -0.045049883 0.70610058 1.4935692e-38
0.73476732 -0.044251293 0.7064091 1.5673256e-38
0.74425209 -0.042877883 0.70465225 1.7332415e-38
0.75484085 -0.040992498 0.70199621 1.8807547e-38
0.44796324 -0.038599446 0.70400888 4.41997e-39
0.45508271 -0.034911666 0.70567006 4.5107181e-39
0.46239322 -0.031575728 0.7082743 4.6925786e-39
0.49171373 -0.036655821 0.70944071 6.6250701e-39
0.68841922 -0.032747108 0.70157695 1.2907392e-38
0.69473195 -0.035408456 0.70332658 1.7056189e-38
0.70525485 -0.035303872 0.70498383 1.6871439e-38
0.71576095 -0.034627434 0.70541191 1.4935692e-38
0.72532648 -0.035007562 0.70609385 1.5027888e-38
0.73537368 -0.035231687 0.70629537 1.7793395e-38
0.74539876 -0.034639891 0.70656776 1.889974e-38
0.75403243 -0.034459557 0.70479745 1.8069616e-38
0.4661366 -0.026557796 0.70504427 4.4192455e-39
0.47451219 -0.023202443 0.70623517 4.9698872e-39
0.48352823 -0.024072442 0.70740098 5.5219777e-39
0.67842144 -0.021550834 0.70105422 6.3630189e-39
0.68520379 -0.024292063 0.70291859 7.3771918e-39
0.69494975 -0.025286585 0.70524102 1.6779616e-38
0.70537585 -0.025398232 0.70566487 1.539667e-38
0.71564311 -0.024886834 0.70552576 1.5120083e-38
0.72563511 -0.025229808 0.70580155 1.6779602e-38
0.73536354 -0.024655476 0.70646411 1.9084491e-38
0.74473059 -0.025594139 0.70697939 1.889974e-38
0.75181502 -0.027345009 0.70641178 1.9084132e-38
0.477063 -0.019551488 0.70047194 5.6224901e-39
0.67670172 -0.014190626 0.70259088 3.8748621e-39
0.68484223 -0.015232225 0.70528024 4.5202539e-39
0.69474411 -0.014551207 0.70631939 6.2715996e-39
0.70487565 -0.01483858 0.70615381 1.2723758e-38
0.71526009 -0.015135702 0.70589471 1.5857648e-38
0.72532791 -0.015412289 0.7060926 1.9176328e-38
0.73426777 -0.015039361 0.70707959 1.9360719e-38
0.74410909 -0.015690008 0.70406413 1.7332051e-38
0.66834998 -0.0028192478 0.70129502 3.8744992e-39
0.67443448 -0.0057568559 0.70442098 4.0588988e-39
0.68450701 -0.005436528 0.70658827 4.8890477e-39
0.69455779 -0.0049702963 0.7065044 4.8890463e-39
0.70467484 -0.0051820851 0.70634949 5.3500188e-39
0.714849 -0.0045098015 0.7062903 1.0972806e-38
0.7247079 -0.0046994514 0.70668083 1.8900113e-38
0.73357862 -0.0054180468 0.70641446 1.7701579e-38
0.74056536 -0.0041845087 0.7028318 1.4751706e-38
0.65931559 0.0092482083 0.70075148 1.097128e-38
0.66562688 0.0052761491 0.70351326 9.2206896e-39
0.67504954 0.0046864478 0.70629764 4.7050095e-39
0.68479514 0.0047296332 0.70645827 4.889405e-39
0.69463158 0.0045978939 0.70643139 4.8890477e-39
0.7046662 0.0044633616 0.70635766 4.8894064e-39
0.71482807 0.005211215 0.70631039 4.8890449e-39
0.72466755 0.0047172424 0.70627993 8.4839191e-39
0.73186189 0.0037885355 0.70523787 1.0051229e-38
0.65658355 0.016001256 0.70259547 1.3644952e-38
0.66476005 0.01478129 0.70512056 1.6503388e-38
0.67486942 0.015385953 0.70585436 9.3136448e-39
0.68511367 0.015088688 0.70613772 4.8894036e-39
0.69470835 0.01503855 0.70635492 4.8890449e-39
0.7046302 0.014985573 0.70639277 4.8894064e-39
0.7148878 0.014930398 0.70625323 4.8890477e-39
0.72304571 0.013006088 0.70594043 4.9812447e-39
0.6478883 0.026808444 0.70181143 1.428996e-38
0.65532315 0.025246374 0.70350295 1.6779605e-38
0.66451824 0.025403464 0.70514321 1.4843496e-38
0.67471606 0.025429497 0.70566201 1.5027889e-38
0.68529516 0.025456863 0.70595485 1.1617424e-38
0.69465089 0.025480315 0.7064116 6.0875726e-39
0.70449686 0.025506245 0.706523 4.9812433e-39
0.71351302 0.024411313 0.70618641 5.81099e-39
0.64537585 0.035912756 0.70301896 1.5857285e-38
0.65501541 0.03525617 0.70481992 1.5673257e-38
0.6644873 0.035613354 0.70517612 1.5027888e-38
0.67456597 0.035239443 0.70554346 1.5120083e-38
0.68537652 0.034964301 0.70587295 1.7148384e-38
0.69485724 0.03505652 0.70620781 1.7794132e-38
0.70437378 0.034844611 0.70599449 1.097244e-38
0.71231914 0.033484824 0.70381582 1.6963647e-38
0.45493668 0.047904268 0.70383161 7.0075741e-39
0.64708751 0.043027334 0.70229077 1.410557e-38
0.6548515 0.04604014 0.70370162 1.4198126e-38
0.66538829 0.04512893 0.70526356 1.4751301e-38
0.67559028 0.044372857 0.70588923 1.6134234e-38
0.68537521 0.044471547 0.70587534 1.9637303e-38
0.69537514 0.044577766 0.70509911 1.9175967e-38
0.70371592 0.043947548 0.70360178 1.9084132e-38
0.45370138 0.055545487 0.70328569 8.4894402e-39
0.65743774 0.052637804 0.70150256 1.1616649e-38
0.66538554 0.054489937 0.70373702 1.2815193e-38
0.67493767 0.055049352 0.70665699 1.7148026e-38
0.6849097 0.054498021 0.70667768 2.0282311e-38
0.69426787 0.054219656 0.7048108 2.0282671e-38
0.70017731 0.05442841 0.70216262 2.0375233e-38
0.45564619 0.063299164 0.70479858 8.490857e-39
0.46217972 0.06810908 0.70546877 8.3064685e-39
0.66786808 0.061056852 0.70165831 1.0325911e-38
0.67540383 0.06305217 0.7046209 1.4474714e-38
0.68537974 0.065183468 0.70452911 1.6871439e-38
0.69095236 0.06338314 0.7055921 1.8900104e-38
0.46761116 0.071699478 0.7043789 8.3064685e-39
0.47547603 0.076910414 0.70548069 8.3064685e-39
0.64812136 0.070177637 0.70262611 1.0506699e-38
0.46566314 0.08112061 0.7064743 8.3064685e-39
0.48543006 0.083420791 0.70486325 8.3064685e-39
0.4929817 0.088300787 0.70516235 8.3064685e-39
0.49793619 0.091472737 0.70479292 8.3064685e-39
0.50519913 0.095985837 0.70516062 8.6738091e-39
0.51029229 0.099164806 0.70356792 8.5819736e-39
0.51582617 0.10247924 0.70476604 8.671298e-39
0.52481312 0.10748832 0.7051599 8.6677373e-39
0.63548356 0.10860474 0.70503014 1.5581422e-38
0.53495413 0.11305813 0.70424145 8.022742e-39
0.54329497 0.11735225 0.70708001 8.3975893e-39
0.6353848 0.11070074 0.70915288 1.6503739e-38
0.59978056 0.1201314 0.70049304 1.1985432e-38
0.60846013 0.13592555 0.7050873 1.1985432e-38
0.61061496 0.13156794 0.70777172 1.1801041e-38
0.60774165 0.1450837 0.70480412 1.2722997e-38
0.61071718 0.14837122 0.70896572 1.3737149e-38
0.60844231 0.15162607 0.70235753 1.2999584e-38
0.61375743 0.15327315 0.70574248 1.3737149e-38
0.44881114 0.18979721 0.70395827 1.207569e-38
0.45369735 0.18948144 0.70596808 1.2167148e-38
0.4390758 0.19932523 0.70720387 1.1781511e-38
0.44314229 0.19443227 0.70531869 1.1788677e-38
0.43550476 0.20500341 0.704979 1.178975e-38
0.42797518 0.21611667 0.70533186 1.0510518e-38
0.43116972 0.21116571 0.70524335 1.1797991e-38
0.42492533 0.22450969 0.70520931 1.0323978e-38
0.42752421 0.23241042 0.70501941 5.0707512e-39
0.43266517 0.23763032 0.70665669 5.1629497e-39
0.43612033 0.24011569 0.70108902 4.8867257e-39
0.46602806 -0.42245039 0.71447372 6.2448278e-39
0.44906771 -0.41403884 0.71803659 8.8287955e-39
0.45885444 -0.41286063 0.716214 6.2448278e-39
0.46225896 -0.41742611 0.71460265 6.2448278e-39
0.44887406 -0.40052626 0.71766448 6.2448278e-39
0.46094015 -0.40214711 0.71204233 7.4458751e-39
0.44585595 -0.39524439 0.71452212 6.7994365e-39
0.43762314 -0.38167629 0.71516752 7.4469513e-39
0.44121933 -0.38771549 0.71578193 7.8164512e-39
0.4335568 -0.37450865 0.71458232 8.7344461e-39
0.42793548 -0.36439729 0.71553677 1.085385e-38
0.42306212 -0.35502374 0.7146222 1.1041833e-38
0.417712 -0.34478644 0.71561521 1.0858876e-38
0.42042565 -0.34969628 0.71135414 1.113726e-38
0.41257858 -0.33477464 0.71507835 9.014263e-39
0.40754169 -0.32491797 0.71509749 8.4585823e-39
0.40272418 -0.31472322 0.71532321 6.337022e-39
0.39855948 -0.3040145 0.71495426 6.2448278e-39
0.40056467 -0.30875045 0.7174722 6.2448278e-39
0.63803089 -0.30038124 0.7123729 1.8450547e-39
0.39627489 -0.29472211 0.71501726 6.2448278e-39
0.40002716 -0.29035395 0.71009016 6.2448278e-39
0.62882173 -0.29028261 0.71019393 2.8660659e-39
0.63383079 -0.29496753 0.7151317 2.6827495e-39
0.39871994 -0.28935024 0.71832228 6.4292176e-39
0.40506706 -0.28554022 0.71463925 7.167856e-39
0.41127571 -0.28089923 0.71362257 9.6722651e-39
0.62583327 -0.28485611 0.7148813 2.7875246e-39
0.39263168 -0.27953294 0.71232176 7.4487715e-39
0.41615722 -0.27755809 0.71489704 8.8389045e-39
0.42487118 -0.27265444 0.71456796 8.4676038e-39
0.6184262 -0.2734082 0.71432251 2.7882434e-39
0.6215325 -0.27816877 0.71573555 2.789321e-39
0.43447024 -0.26733455 0.71550834 7.6346019e-39
0.61345762 -0.26518005 0.71510881 3.1580993e-39
0.60653281 -0.25502482 0.71498072 3.2499362e-39
0.61003333 -0.25985646 0.71639639 2.7904e-39
0.59736681 -0.24281578 0.71500093 3.5258015e-39
0.60151792 -0.24807259 0.71470547 3.617637e-39
0.57293624 -0.2337766 0.71851325 2.8599577e-39
0.58862305 -0.23194343 0.71472132 3.8935022e-39
0.59256899 -0.23680896 0.71512091 3.433966e-39
0.57890308 -0.22036517 0.71224606 5.3650225e-39
0.58328611 -0.22525695 0.71531379 3.6179957e-39
0.57484502 -0.21491715 0.71492338 3.3399739e-39
0.5667299 -0.20485654 0.7151441 2.786447e-39
0.57132709 -0.20976275 0.71881574 2.7904e-39
0.55716449 -0.19333 0.71486282 2.7846491e-39
0.56140292 -0.19840556 0.71505046 2.7853694e-39
0.54926389 -0.18164104 0.7158401 2.7842918e-39
0.5523333 -0.18665823 0.71517742 2.7846505e-39
0.54625833 -0.17464289 0.71282023 2.8678624e-39
0.54226154 -0.16433574 0.71449935 2.8631933e-39
0.54638696 -0.15620957 0.71402806 3.0439944e-39
0.55182064 -0.15191446 0.71639323 3.0439944e-39
0.55632609 -0.14926089 0.71592844 2.8599591e-39
0.56523591 -0.14721307 0.71525818 2.8599577e-39
0.57517767 -0.14614549 0.71479231 2.8599577e-39
0.58163184 -0.14553401 0.71508038 2.8599577e-39
0.44800442 -0.061639048 0.71142536 5.0606381e-39
0.45435324 -0.063275985 0.71187055 6.2566519e-39
0.46270555 -0.061123658 0.71096075 6.5328759e-39
0.44605637 -0.054314714 0.71218342 5.520533e-39
0.45472705 -0.054828845 0.71394777 6.2566519e-39
0.46464521 -0.054657768 0.7132386 6.5328759e-39
0.47396398 -0.053308662 0.71187443 6.4406816e-39
0.48092139 -0.051217563 0.71113974 6.5328759e-39
0.70842284 -0.057297025 0.71214795 6.7039912e-39
0.44734174 -0.046684057 0.71154499 5.2446678e-39
0.45500174 -0.045108806 0.71314955 5.796757e-39
0.46463346 -0.044794358 0.7143147 6.2566519e-39
0.4746137 -0.044860117 0.71405911 6.4406816e-39
0.48396394 -0.044181895 0.71282685 6.7165469e-39
0.45698574 -0.038780194 0.71111286 5.2446678e-39
0.46549824 -0.035623208 0.71214384 5.7045627e-39
0.4747678 -0.034722183 0.71363252 6.0726222e-39
0.48423859 -0.035482686 0.71319532 6.5325171e-39
0.46934772 -0.028947711 0.71057355 5.4286975e-39
0.47579414 -0.027837565 0.7116285 5.4286975e-39
0.48326793 -0.027955672 0.71121585 6.257012e-39
0.67193818 -0.020416651 0.7124716 1.3461317e-38
0.70721841 0.0011283699 0.71042007 1.5027888e-38
0.70539564 0.031874504 0.71563333 1.9176688e-38
0.4545719 0.048523657 0.71422136 6.730281e-39
0.46040756 0.048311025 0.71140087 7.467846e-39
0.45240954 0.05521521 0.71535486 7.1962211e-39
0.45585671 0.062909909 0.71473092 8.3064685e-39
0.46347046 0.068223387 0.71470499 8.3064685e-39
0.46813297 0.071274519 0.71483231 8.3064685e-39
0.47436735 0.075792909 0.71499413 8.3983026e-39
0.48462513 0.083133377 0.71524894 8.6730902e-39
0.49298453 0.087516844 0.71441615 8.48549e-39
0.49754909 0.091234952 0.71446055 8.8535452e-39
0.5054124 0.096005909 0.71480238 9.0358191e-39
0.51173931 0.099849403 0.71761853 1.12475e-38
0.51525605 0.10197118 0.71428806 9.6801502e-39
0.52378535 0.10686541 0.71510947 1.0418102e-38
0.52951217 0.11014639 0.71740198 8.8507805e-39
0.53490281 0.11325678 0.71457189 8.3926343e-39
0.54298705 0.11740244 0.71601218 6.3671611e-39
0.60741282 0.11511058 0.71019292 1.6779965e-38
0.63520104 0.11357447 0.71195334 1.89923e-38
0.64019603 0.11588712 0.71126676 1.9453637e-38
0.61252481 0.12967476 0.71416485 1.244641e-38
0.61250371 0.13542938 0.71484542 1.1985432e-38
0.6147278 0.14485912 0.71358758 1.5027888e-38
0.62217802 0.1466089 0.71672136 1.4474714e-38
0.61882716 0.15101138 0.71146214 1.5673257e-38
0.62224543 0.15044659 0.71254146 1.5857648e-38
0.45460108 0.18976626 0.7151643 1.2627739e-38
0.43938112 0.19892827 0.71315777 1.177757e-38
0.44436592 0.19390142 0.71569961 1.3442082e-38
0.45218024 0.19089508 0.71760154 1.5300297e-38
0.43556967 0.20497988 0.71548814 1.1783303e-38
0.44037062 0.20002088 0.71959746 1.214599e-38
0.42771217 0.21640012 0.71553183 1.179835e-38
0.43098003 0.21167246 0.71615624 1.1890544e-38
0.42555821 0.22470888 0.71520907 1.0508008e-38
0.45021066 0.22507048 0.71989202 8.8492502e-39
0.4282881 0.23222472 0.71348512 6.4533185e-39
0.43286201 0.23645271 0.71608716 7.9276877e-39
0.43896121 0.24162738 0.71431535 7.9276793e-39
0.44350863 0.24410558 0.71721953 1.0415814e-38
0.44895962 -0.40131673 0.72490829 6.2448278e-39
0.45059022 -0.40383753 0.72368973 6.2448278e-39
0.44498134 -0.39489231 0.7248348 6.3373821e-39
0.43805376 -0.3837328 0.72565097 6.2448292e-39
0.44048142 -0.3880018 0.72925979 6.2448278e-39
0.43314597 -0.37502763 0.72468358 8.8273634e-39
0.42763427 -0.3646436 0.72556281 1.0304986e-38
0.43034011 -0.36941189 0.72044641 1.0575831e-38
0.4198513 -0.35001129 0.72978008 9.7546922e-39
0.42252886 -0.354781 0.7245236 9.2919246e-39
0.41739827 -0.34479636 0.72481292 1.049153e-38
0.40986252 -0.33015549 0.72629511 9.1943452e-39
0.41240075 -0.33505437 0.72524774 9.0099554e-39
0.40719765 -0.32483155 0.72485083 6.5214132e-39
0.40324768 -0.31509957 0.72434926 6.2448278e-39
0.39911565 -0.3028807 0.72414064 6.2448278e-39
0.40077266 -0.30769047 0.72480792 6.2448278e-39
0.39639258 -0.29424572 0.72401029 6.2448278e-39
0.63512927 -0.29458925 0.72505981 2.5894734e-39
0.6412468 -0.29876706 0.72931802 1.5684636e-39
0.39787233 -0.2887173 0.72566038 7.0745772e-39
0.40504444 -0.28432554 0.7246213 6.984548e-39
0.41101414 -0.28076631 0.72465861 8.7456284e-39
0.62665135 -0.28367576 0.72540146 2.7904e-39
0.63072258 -0.28904727 0.72616106 2.7904e-39
0.41607481 -0.27777678 0.72449881 8.8381842e-39
0.42507038 -0.27264157 0.72487533 6.6157711e-39
0.61910355 -0.27220646 0.7243709 2.7904e-39
0.62224114 -0.27705261 0.72494358 2.7904e-39
0.42999858 -0.26980484 0.72346818 6.2448278e-39
0.43441117 -0.26740912 0.72558284 6.2448278e-39
0.61481678 -0.2653423 0.72490758 2.7904e-39
0.60720193 -0.25439581 0.72458023 2.7904e-39
0.61097568 -0.25931865 0.72729927 2.7904e-39
0.42883497 -0.24954364 0.72045207 7.1631855e-39
0.59833783 -0.24253114 0.72516972 2.7904e-39
0.60218298 -0.24742217 0.72490728 2.7903986e-39
0.58925092 -0.23123564 0.72426796 2.7904e-39
0.59327608 -0.23612183 0.72524726 2.7904e-39
0.58432573 -0.22483248 0.72510296 2.7904e-39
0.57599175 -0.21436465 0.72466427 2.7904e-39
0.58039045 -0.21936287 0.72731316 2.7904e-39
0.5669958 -0.20316499 0.72425801 2.7904e-39
0.57123625 -0.20796144 0.7263943 2.7904e-39
0.55810332 -0.19250613 0.72466183 2.7904e-39
0.56229758 -0.19730352 0.72518873 2.7904e-39
0.54887062 -0.1817472 0.7238431 2.7904e-39
0.55296355 -0.18635744 0.72562122 2.7904e-39
0.54505277 -0.17458849 0.72531348 2.7911203e-39
0.54366899 -0.16569914 0.72447455 2.8790055e-39
0.54596543 -0.15529871 0.72609413 2.8613954e-39
0.55337912 -0.15072069 0.72002703 2.8599577e-39
0.55437893 -0.14845772 0.725339 2.8599577e-39
0.56634641 -0.14652206 0.72460568 2.8599577e-39
0.57732642 -0.1456605 0.72610974 2.8599577e-39
0.438088 -0.06215981 0.72361964 6.4406816e-39
0.45461524 0.048567344 0.72439945 5.9005203e-39
0.4527345 0.054965205 0.72512525 7.1958638e-39
0.4563677 0.062491115 0.72495872 8.3064685e-39
0.46276128 0.067771137 0.72516519 8.6734489e-39
0.46836343 0.071383432 0.72577798 8.3003658e-39
0.4747811 0.07593248 0.72482842 8.5758962e-39
0.48157188 0.079359673 0.72563678 9.867756e-39
0.46406823 0.08028651 0.72531885 8.8532608e-39
0.48540506 0.083460897 0.72478324 9.311711e-39
0.49370036 0.088685162 0.72501993 1.097127e-38
0.48781663 0.098541841 0.72527665 9.7727199e-39
0.49827126 0.091549359 0.72642893 1.1432257e-38
0.50447732 0.095478795 0.72450036 1.1155668e-38
0.51074469 0.099300839 0.72497565 1.0694694e-38
0.52254707 0.099332996 0.72342974 8.9468325e-39
0.51663852 0.10266183 0.72516799 8.758945e-39
0.5254786 0.10768127 0.72480124 7.7444343e-39
0.53507107 0.11305638 0.72478014 7.9320135e-39
0.54406756 0.11621137 0.72669828 9.5982667e-39
0.60398132 0.12374609 0.72723508 1.1893236e-38
0.61041999 0.12156046 0.72729325 4.2273111e-39
0.61631024 0.13503316 0.72567296 1.1878472e-38
0.6180315 0.14099362 0.721968 1.1893236e-38
0.62460113 0.14262263 0.72453821 1.3452999e-38
0.44586077 0.19707496 0.72329044 1.5103011e-38
0.4547267 0.19551454 0.72341287 1.9356842e-38
0.4632037 0.19790006 0.72264796 1.9724543e-38
0.43762061 0.20696753 0.72267509 1.3991664e-38
0.44479874 0.20479563 0.72599703 1.7688389e-38
0.45503101 0.204923 0.72705293 1.9910007e-38
0.46457508 0.20515925 0.7255348 2.0647202e-38
0.47242415 0.20626239 0.72134501 2.0831238e-38
0.42868215 0.21845897 0.72130698 1.2904681e-38
0.43450758 0.21528652 0.72457582 1.5946373e-38
0.44468561 0.21488206 0.72760475 1.9172453e-38
0.45492682 0.21486463 0.72824532 1.972526e-38
0.46453947 0.21493493 0.72730333 2.0555008e-38
0.47209349 0.21330862 0.7238127 2.0463182e-38
0.41180775 0.22776674 0.72115451 7.2826826e-39
0.42794338 0.22446069 0.7225188 1.3918459e-38
0.4347901 0.22518422 0.72610921 1.7789899e-38
0.4446536 0.22486788 0.72794086 1.9356842e-38
0.45492613 0.22479662 0.72805566 2.0002202e-38
0.46299967 0.22418644 0.72644502 2.0278784e-38
0.42948273 0.23098405 0.72180623 1.2167128e-38
0.43572661 0.23408633 0.72391492 1.4932242e-38
0.44469783 0.23504744 0.72692418 1.7605512e-38
0.45391634 0.23424886 0.72731435 1.9725619e-38
0.46093059 0.23274629 0.72460335 2.0370978e-38
0.44588348 0.24201126 0.72375238 1.4563822e-38
0.45153078 0.24059986 0.72594798 1.8435258e-38
0.45468372 -0.41175693 0.73817372 6.2448278e-39
0.44902158 -0.40219134 0.73453158 6.2448278e-39
0.45087132 -0.4054915 0.7377944 6.2448278e-39
0.44464621 -0.39505589 0.73505729 6.2448278e-39
0.43746674 -0.3832882 0.73507661 6.2448278e-39
0.44056591 -0.38842276 0.73558235 6.2448278e-39
0.43248555 -0.37466589 0.73500896 7.62883e-39
0.4271211 -0.36500245 0.73538303 8.3696138e-39
0.41984951 -0.35066909 0.73952413 6.2448292e-39
0.42217419 -0.35509574 0.73490787 6.707238e-39
0.41715622 -0.34475905 0.73524886 8.8323814e-39
0.40975612 -0.33029455 0.73387599 6.4288589e-39
0.41243714 -0.33562469 0.73527056 6.8916265e-39
0.40717596 -0.32525468 0.73507726 6.4292176e-39
0.39942533 -0.31067204 0.73871106 6.2448278e-39
0.40264848 -0.31569427 0.73427272 6.2448278e-39
0.38899893 -0.30817419 0.73049057 6.2448278e-39
0.39796576 -0.30434179 0.73477584 6.2448278e-39
0.40090305 -0.30955118 0.73131871 6.2448278e-39
0.39616153 -0.29261196 0.73556727 6.7983533e-39
0.63632256 -0.29267046 0.7345345 2.9568308e-39
0.6421141 -0.29760626 0.73391104 2.0298159e-39
0.39881426 -0.28904754 0.73334551 8.642242e-39
0.40432477 -0.28516749 0.7350145 6.4295777e-39
0.41137749 -0.28073645 0.73489279 7.1718245e-39
0.62792492 -0.28344014 0.73465097 2.7832128e-39
0.63212144 -0.28791392 0.73607326 2.8718183e-39
0.40446049 -0.27436379 0.73962349 7.3565745e-39
0.41648191 -0.27781397 0.73489338 1.0041765e-38
0.42481679 -0.27324626 0.73499662 1.0041045e-38
0.4314647 -0.27083397 0.73791474 8.930377e-39
0.61939341 -0.27091223 0.73468763 2.7835715e-39
0.62287515 -0.27609634 0.73527378 2.7806974e-39
0.43584514 -0.26819038 0.73478591 6.3377436e-39
0.44156185 -0.26647848 0.73656881 6.2448278e-39
0.60626292 -0.26490393 0.73414433 2.786447e-39
0.61531842 -0.26477376 0.73483688 2.781775e-39
0.62148166 -0.26283687 0.73578298 3.5053481e-39
0.60727161 -0.25349513 0.73487562 2.781775e-39
0.6109286 -0.25829935 0.73559046 2.7799786e-39
0.59847683 -0.24207497 0.7351597 2.7821352e-39
0.60230744 -0.24720125 0.73515403 2.7814163e-39
0.58963948 -0.230305 0.73328769 2.7853694e-39
0.59351164 -0.23534764 0.73481864 2.7824939e-39
0.60224259 -0.23966007 0.7306484 4.9812461e-39
0.58586609 -0.22506016 0.73525751 2.781775e-39
0.57680106 -0.2137021 0.734833 2.7835729e-39
0.58121574 -0.21838839 0.73487073 4.4398418e-39
0.56788021 -0.20261954 0.73514277 2.7839316e-39
0.57195061 -0.20755604 0.73564696 2.781775e-39
0.55870008 -0.19150138 0.73465782 2.7864456e-39
0.56288493 -0.19648522 0.73536766 2.7839316e-39
0.54859662 -0.18035451 0.73064089 2.7904e-39
0.55342352 -0.1851327 0.73526442 2.7850092e-39
0.54766995 -0.17506063 0.73540461 2.8804447e-39
0.55066001 -0.17881548 0.73911619 3.1419424e-39
0.54495454 -0.16519748 0.73655492 3.0659191e-39
0.54658043 -0.15592724 0.73411 2.8617555e-39
0.55090874 -0.15100983 0.73390633 2.8599577e-39
0.59587759 -0.15947932 0.73940676 1.3184387e-38
0.55468947 -0.14749543 0.7354672 2.8599605e-39
0.56309181 -0.14540637 0.73566931 2.8599577e-39
0.57414871 -0.14505799 0.73491985 2.8599577e-39
0.58092791 -0.14452988 0.73845577 2.8599577e-39
0.47262302 -0.032543659 0.73062593 5.4290576e-39
0.45473862 0.048428349 0.73370689 6.730281e-39
0.46286696 0.047353882 0.73287505 4.8863684e-39
0.45340019 0.054576244 0.73566532 7.1962225e-39
0.45775595 0.062729113 0.73550844 8.3064685e-39
0.46303496 0.067862973 0.73468852 8.3050336e-39
0.4680413 0.071134888 0.73442638 8.1139119e-39
0.47506365 0.075869821 0.73531836 1.097128e-38
0.48036692 0.079550691 0.73380399 1.1340062e-38
0.48537728 0.083187789 0.73458767 1.0418106e-38
0.4924854 0.088038892 0.73504567 8.4819965e-39
0.49751768 0.09121073 0.73539668 7.5604018e-39
0.50530064 0.095995978 0.73489189 7.6518771e-39
0.51180768 0.099916264 0.73903179 7.5600431e-39
0.51550299 0.10196454 0.73426437 8.113577e-39
0.52410883 0.10682118 0.7350651 8.8507805e-39
0.51223975 0.11951129 0.73779547 8.4823581e-39
0.53236288 0.11139145 0.73411161 8.9433278e-39
0.62485689 0.12761997 0.73444963 1.4453829e-38
0.63297355 0.12852509 0.73205972 1.8873817e-38
0.61922818 0.13221169 0.731345 1.2595152e-38
0.62384903 0.13455632 0.73519176 1.3420233e-38
0.46229601 0.22098573 0.73430997 2.0278784e-38
